# .PCD v0.7 - Point Cloud Data file format
VERSION 0.7
FIELDS x y z rgb
SIZE 4 4 4 4
TYPE F F F F
COUNT 1 1 1 1
WIDTH 969
HEIGHT 1
VIEWPOINT 0 0 0 1 0 0 0
POINTS 969
DATA ascii
-0.19950764 -0.080244765 0.77300006 1.7971302e-38
-0.19803524 -0.080244765 0.77300006 1.806529e-38
-0.19656287 -0.080244765 0.77300006 1.7880903e-38
-0.19509049 -0.080244765 0.77300006 1.7788713e-38
-0.1936181 -0.080244765 0.77300006 1.797239e-38
-0.19214574 -0.080244765 0.77300006 1.8248248e-38
-0.19067335 -0.080244765 0.77300006 1.8247882e-38
-0.18920097 -0.080244765 0.77300006 1.8339725e-38
-0.18772858 -0.080244765 0.77300006 1.8249333e-38
-0.1862562 -0.080244765 0.77300006 1.8067091e-38
-0.18574001 -0.08066 0.77700001 1.8341516e-38
-0.18426001 -0.08066 0.77700001 1.8614515e-38
-0.18325049 -0.080867618 0.77900004 1.8709585e-38
-0.18176667 -0.080867618 0.77900004 1.8801779e-38
-0.18051429 -0.080971435 0.78000003 1.8989039e-38
-0.17948763 -0.081179053 0.78200006 1.9177013e-38
-0.17845334 -0.08138667 0.78400004 1.9912056e-38
-0.17696001 -0.08138667 0.78400004 2.0647125e-38
-0.17546667 -0.08138667 0.78400004 2.1110277e-38
-0.17441714 -0.081594288 0.78600001 2.1661591e-38
-0.17336002 -0.081801906 0.78800005 1.7140789e-38
-0.17207715 -0.081905723 0.78900003 1.2706443e-38
-0.17057429 -0.081905723 0.78900003 1.2247211e-38
-0.16950001 -0.082113333 0.79100001 1.1793076e-38
-0.22026668 -0.079893336 0.78400004 1.7692183e-38
-0.21877334 -0.079893336 0.78400004 1.7692181e-38
-0.21468572 -0.079485722 0.78000003 1.7968046e-38
-0.21320002 -0.079485722 0.78000003 1.8060602e-38
-0.21144287 -0.079383813 0.77900004 1.824607e-38
-0.20995906 -0.079383813 0.77900004 1.8062405e-38
-0.20794 -0.079180002 0.77700001 1.7879453e-38
-0.20646 -0.079180002 0.77700001 1.7602514e-38
-0.20498 -0.079180002 0.77700001 1.7419558e-38
-0.2029762 -0.078976192 0.77500004 1.7603226e-38
-0.20150001 -0.078976192 0.77500004 1.7786904e-38
-0.20002382 -0.078976192 0.77500004 1.7878745e-38
-0.19854762 -0.078976192 0.77500004 1.8063131e-38
-0.19707143 -0.078976192 0.77500004 1.8063847e-38
-0.19559525 -0.078976192 0.77500004 1.815569e-38
-0.19411905 -0.078976192 0.77500004 1.824861e-38
-0.19264287 -0.078976192 0.77500004 1.8431555e-38
-0.19165999 -0.079180002 0.77700001 1.8523023e-38
-0.19017999 -0.079180002 0.77700001 1.8616303e-38
-0.18722001 -0.079180002 0.77700001 1.8250768e-38
-0.18574001 -0.079180002 0.77700001 1.8525921e-38
-0.18473428 -0.079383813 0.77900004 1.8895059e-38
-0.18348572 -0.079485722 0.78000003 1.8988691e-38
-0.18200001 -0.079485722 0.78000003 1.9082326e-38
-0.18097715 -0.079689525 0.78200006 1.9451828e-38
-0.17994668 -0.079893336 0.78400004 1.9912081e-38
-0.17845334 -0.079893336 0.78400004 2.0649994e-38
-0.17696001 -0.079893336 0.78400004 2.1384693e-38
-0.17591429 -0.080097146 0.78600001 2.1846756e-38
-0.17441714 -0.080097146 0.78600001 2.2306229e-38
-0.17336002 -0.080300957 0.78800005 1.7696815e-38
-0.17207715 -0.080402859 0.78900003 1.316919e-38
-0.17100666 -0.080606669 0.79100001 1.2425833e-38
-0.16950001 -0.080606669 0.79100001 1.1791984e-38
-0.22026668 -0.078400008 0.78400004 1.8059883e-38
-0.21933143 -0.078599997 0.78600001 1.8059873e-38
-0.21728002 -0.078400008 0.78400004 1.8153492e-38
-0.21578667 -0.078400008 0.78400004 1.8338964e-38
-0.21320002 -0.078000002 0.78000003 1.8338612e-38
-0.21171428 -0.078000002 0.78000003 1.8430097e-38
-0.21022858 -0.078000002 0.78000003 1.8246436e-38
-0.20847525 -0.077900007 0.77900004 1.8154961e-38
-0.20699145 -0.077900007 0.77900004 1.7970933e-38
-0.20498 -0.077699997 0.77700001 1.7878733e-38
-0.2035 -0.077699997 0.77700001 1.7970921e-38
-0.20202 -0.077699997 0.77700001 1.7971646e-38
-0.20054001 -0.077699997 0.77700001 1.8154966e-38
-0.19905999 -0.077699997 0.77700001 1.8338632e-38
-0.19757999 -0.077699997 0.77700001 1.8338626e-38
-0.1961 -0.077699997 0.77700001 1.8430472e-38
-0.19462 -0.077699997 0.77700001 1.8524829e-38
-0.19314 -0.077699997 0.77700001 1.8709567e-38
-0.19165999 -0.077699997 0.77700001 1.8801394e-38
-0.19017999 -0.077699997 0.77700001 1.8893239e-38
-0.18870001 -0.077699997 0.77700001 1.889325e-38
-0.18722001 -0.077699997 0.77700001 1.8985459e-38
-0.1862181 -0.077900007 0.77900004 1.9172015e-38
-0.18497142 -0.078000002 0.78000003 1.9358556e-38
-0.18348572 -0.078000002 0.78000003 1.9542587e-38
-0.18246667 -0.078200005 0.78200006 1.9818465e-38
-0.18097715 -0.078200005 0.78200006 2.009506e-38
-0.17994668 -0.078400008 0.78400004 2.0463837e-38
-0.17845334 -0.078400008 0.78400004 2.0926603e-38
-0.17741142 -0.078599997 0.78600001 2.1384707e-38
-0.17591429 -0.078599997 0.78600001 2.1847116e-38
-0.17486095 -0.078800008 0.78800005 2.2308019e-38
-0.17336002 -0.078800008 0.78800005 1.8711659e-38
-0.17207715 -0.078900002 0.78900003 1.5101663e-38
-0.17057429 -0.078900002 0.78900003 1.3253761e-38
-0.16950001 -0.079099998 0.79100001 1.1515745e-38
-0.21933143 -0.077102855 0.78600001 1.8521563e-38
-0.21728002 -0.076906674 0.78400004 1.8615547e-38
-0.21578667 -0.076906674 0.78400004 1.870703e-38
-0.21429335 -0.076906674 0.78400004 1.8706679e-38
-0.21225716 -0.076710477 0.78200006 1.870633e-38
-0.21076763 -0.076710477 0.78200006 1.8522669e-38
-0.20874286 -0.076514289 0.78000003 1.8430476e-38
-0.20725715 -0.076514289 0.78000003 1.8430477e-38
-0.20577143 -0.076514289 0.78000003 1.8430834e-38
-0.20402381 -0.076416194 0.77900004 1.8339715e-38
-0.20254001 -0.076416194 0.77900004 1.8247524e-38
-0.2010562 -0.076416194 0.77900004 1.8430839e-38
-0.19957238 -0.076416194 0.77900004 1.8615942e-38
-0.19757999 -0.076219998 0.77700001 1.8709209e-38
-0.19660477 -0.076416194 0.77900004 1.880213e-38
-0.19512096 -0.076416194 0.77900004 1.8895051e-38
-0.19363716 -0.076416194 0.77900004 1.8986528e-38
-0.19215335 -0.076416194 0.77900004 1.9078005e-38
-0.19017999 -0.076219998 0.77700001 1.92624e-38
-0.18870001 -0.076219998 0.77700001 1.9447156e-38
-0.18770191 -0.076416194 0.77900004 1.972446e-38
-0.1862181 -0.076416194 0.77900004 1.9726617e-38
-0.18497142 -0.076514289 0.78000003 1.9818812e-38
-0.18348572 -0.076514289 0.78000003 2.0186873e-38
-0.18246667 -0.076710477 0.78200006 2.0648213e-38
-0.18144001 -0.076906674 0.78400004 2.0834046e-38
-0.17994668 -0.076906674 0.78400004 2.1015206e-38
-0.17890857 -0.077102855 0.78600001 2.1203182e-38
-0.17741142 -0.077102855 0.78600001 2.1386497e-38
-0.17591429 -0.077102855 0.78600001 2.1847831e-38
-0.17486095 -0.077299051 0.78800005 2.2402019e-38
-0.17336002 -0.077299051 0.78800005 1.9726898e-38
-0.17207715 -0.077397145 0.78900003 1.7040985e-38
-0.17100666 -0.077593334 0.79100001 1.4082077e-38
-0.21429335 -0.075413339 0.78400004 1.879924e-38
-0.21280001 -0.075413339 0.78400004 1.879925e-38
-0.21130668 -0.075413339 0.78400004 1.8707065e-38
-0.20927811 -0.075220957 0.78200006 1.8614873e-38
-0.20725715 -0.075028576 0.78000003 1.8615234e-38
-0.20577143 -0.075028576 0.78000003 1.870743e-38
-0.20428573 -0.075028576 0.78000003 1.8615956e-38
-0.20254001 -0.074932382 0.77900004 1.8616312e-38
-0.20131429 -0.075028576 0.78000003 1.8801775e-38
-0.19982858 -0.075028576 0.78000003 1.8895404e-38
-0.19808859 -0.074932382 0.77900004 1.8986881e-38
-0.19685715 -0.075028576 0.78000003 1.9078365e-38
-0.19537143 -0.075028576 0.78000003 1.9170926e-38
-0.19388571 -0.075028576 0.78000003 1.9355323e-38
-0.19215335 -0.074932382 0.77900004 1.944681e-38
-0.19066954 -0.074932382 0.77900004 1.953829e-38
-0.18918572 -0.074932382 0.77900004 1.9724119e-38
-0.18794286 -0.075028576 0.78000003 1.991209e-38
-0.18645716 -0.075028576 0.78000003 2.0003202e-38
-0.18544573 -0.075220957 0.78200006 2.009468e-38
-0.18442668 -0.075413339 0.78400004 2.0371983e-38
-0.18293335 -0.075413339 0.78400004 2.0650365e-38
-0.18144001 -0.075413339 0.78400004 2.0926596e-38
-0.18040572 -0.075605713 0.78600001 2.1107755e-38
-0.17890857 -0.075605713 0.78600001 2.1387566e-38
-0.17741142 -0.075605713 0.78600001 2.1662e-38
-0.1763619 -0.075798102 0.78800005 2.2215889e-38
-0.17508286 -0.075894289 0.78900003 2.2863362e-38
-0.17358001 -0.075894289 0.78900003 2.092868e-38
-0.17251334 -0.076086663 0.79100001 1.8980666e-38
-0.17143907 -0.076279052 0.79300004 1.4819275e-38
-0.21280001 -0.073920004 0.78400004 1.8983997e-38
-0.21130668 -0.073920004 0.78400004 1.8893245e-38
-0.20927811 -0.073731437 0.78200006 1.8893964e-38
-0.20778859 -0.073731437 0.78200006 1.8894684e-38
-0.20577143 -0.073542856 0.78000003 1.8986163e-38
-0.20428573 -0.073542856 0.78000003 1.8985808e-38
-0.20280001 -0.073542856 0.78000003 1.9078363e-38
-0.20131429 -0.073542856 0.78000003 1.9171278e-38
-0.19982858 -0.073542856 0.78000003 1.9262396e-38
-0.19834286 -0.073542856 0.78000003 1.9356384e-38
-0.19685715 -0.073542856 0.78000003 1.9448942e-38
-0.19537143 -0.073542856 0.78000003 1.9541861e-38
-0.19388571 -0.073542856 0.78000003 1.9726611e-38
-0.19240001 -0.073542856 0.78000003 1.972805e-38
-0.19091429 -0.073542856 0.78000003 1.9818453e-38
-0.18918572 -0.073448576 0.77900004 1.9909217e-38
-0.18794286 -0.073542856 0.78000003 2.0096474e-38
-0.18693525 -0.073731437 0.78200006 2.0187951e-38
-0.18544573 -0.073731437 0.78200006 2.0372702e-38
-0.18442668 -0.073920004 0.78400004 2.0557455e-38
-0.18340001 -0.074108571 0.78600001 2.0742208e-38
-0.18190286 -0.074108571 0.78600001 2.1019153e-38
-0.18086477 -0.074297145 0.78800005 2.1295739e-38
-0.17936382 -0.074297145 0.78800005 2.1572324e-38
-0.17786287 -0.074297145 0.78800005 2.1940385e-38
-0.17658572 -0.074391425 0.78900003 2.2583954e-38
-0.17552668 -0.074579999 0.79100001 2.3321851e-38
-0.17402001 -0.074579999 0.79100001 2.2130487e-38
-0.17294954 -0.074768573 0.79300004 2.0914654e-38
-0.17187142 -0.074957147 0.79500002 1.555654e-38
-0.17078573 -0.075145721 0.79700005 1.0322283e-38
-0.16948001 -0.075240009 0.79800004 1.1241003e-38
-0.21334286 -0.072611429 0.78600001 1.9170898e-38
-0.21184571 -0.072611429 0.78600001 1.9079067e-38
-0.20778859 -0.07224191 0.78200006 1.9170905e-38
-0.20629905 -0.07224191 0.78200006 1.9262743e-38
-0.20428573 -0.072057143 0.78000003 1.9263106e-38
-0.20280001 -0.072057143 0.78000003 1.9355308e-38
-0.20183049 -0.07224191 0.78200006 1.9354598e-38
-0.20034097 -0.07224191 0.78200006 1.9446075e-38
-0.19834286 -0.072057143 0.78000003 1.9540422e-38
-0.19736192 -0.07224191 0.78200006 1.9633338e-38
-0.1958724 -0.07224191 0.78200006 1.9725179e-38
-0.19438288 -0.07224191 0.78200006 1.9818088e-38
-0.19240001 -0.072057143 0.78000003 1.9911357e-38
-0.19091429 -0.072057143 0.78000003 2.0095747e-38
-0.18942858 -0.072057143 0.78000003 2.0188302e-38
-0.18794286 -0.072057143 0.78000003 2.028086e-38
-0.18693525 -0.07224191 0.78200006 2.0464535e-38
-0.18592 -0.072426669 0.78400004 2.0557814e-38
-0.18442668 -0.072426669 0.78400004 2.074221e-38
-0.18340001 -0.072611429 0.78600001 2.0830461e-38
-0.18190286 -0.072611429 0.78600001 2.1110636e-38
-0.18086477 -0.072796196 0.78800005 2.1478342e-38
-0.17959145 -0.072888575 0.78900003 2.1756725e-38
-0.17808858 -0.072888575 0.78900003 2.2124066e-38
-0.17703332 -0.073073328 0.79100001 2.2584677e-38
-0.17552668 -0.073073328 0.79100001 2.3045656e-38
-0.17446001 -0.073258102 0.79300004 2.2589e-38
-0.17294954 -0.073258102 0.79300004 2.2114318e-38
-0.17187142 -0.073442854 0.79500002 1.666653e-38
-0.17078573 -0.073627621 0.79700005 1.1322818e-38
-0.16948001 -0.073720008 0.79800004 1.1696585e-38
-0.21771333 -0.071566671 0.79100001 1.9167316e-38
-0.21334286 -0.071114287 0.78600001 1.9354222e-38
-0.21184571 -0.071114287 0.78600001 1.9354942e-38
-0.21034856 -0.071114287 0.78600001 1.9354582e-38
-0.20832001 -0.070933335 0.78400004 1.9446417e-38
-0.20682667 -0.070933335 0.78400004 1.9538613e-38
-0.20480955 -0.07075239 0.78200006 1.9631167e-38
-0.20332003 -0.07075239 0.78200006 1.9724086e-38
-0.20183049 -0.07075239 0.78200006 1.9633692e-38
-0.20034097 -0.07075239 0.78200006 1.9632979e-38
-0.19885145 -0.07075239 0.78200006 1.9724459e-38
-0.19736192 -0.07075239 0.78200006 1.9816657e-38
-0.1958724 -0.07075239 0.78200006 1.9817021e-38
-0.19438288 -0.07075239 0.78200006 1.991029e-38
-0.19289334 -0.07075239 0.78200006 2.0094677e-38
-0.19140382 -0.07075239 0.78200006 2.0371263e-38
-0.18942858 -0.07057143 0.78000003 2.0463817e-38
-0.18842478 -0.07075239 0.78200006 2.0556374e-38
-0.18741335 -0.070933335 0.78400004 2.0648571e-38
-0.18592 -0.070933335 0.78400004 2.0833326e-38
-0.18489714 -0.071114287 0.78600001 2.0926962e-38
-0.18386668 -0.071295246 0.78800005 2.1018443e-38
-0.18236572 -0.071295246 0.78800005 2.1293953e-38
-0.18109429 -0.071385719 0.78900003 2.1663811e-38
-0.18004666 -0.071566671 0.79100001 2.2033309e-38
-0.17853999 -0.071566671 0.79100001 2.2401367e-38
-0.17703332 -0.071566671 0.79100001 2.2585755e-38
-0.17597048 -0.071747623 0.79300004 2.2770869e-38
-0.17446001 -0.071747623 0.79300004 2.304746e-38
-0.17338572 -0.071928576 0.79500002 2.3316083e-38
-0.17230381 -0.072109528 0.79700005 1.7776472e-38
-0.171 -0.072200008 0.79800004 1.2336959e-38
-0.16948001 -0.072200008 0.79800004 1.2152158e-38
-0.22184286 -0.07041429 0.79500002 1.916947e-38
-0.21771333 -0.07006 0.79100001 1.9442115e-38
-0.21388572 -0.06979429 0.78800005 1.9446068e-38
-0.21238478 -0.06979429 0.78800005 1.9446788e-38
-0.21034856 -0.069617145 0.78600001 1.9447143e-38
-0.20885143 -0.069617145 0.78600001 1.9539334e-38
-0.20682667 -0.06944 0.78400004 1.9631529e-38
-0.20533334 -0.06944 0.78400004 1.9723723e-38
-0.20384002 -0.06944 0.78400004 1.9817358e-38
-0.20234667 -0.06944 0.78400004 1.9817006e-38
-0.20085335 -0.06944 0.78400004 1.9816654e-38
-0.19885145 -0.069262862 0.78200006 1.9908497e-38
-0.19786668 -0.06944 0.78400004 2.0000336e-38
-0.1958724 -0.069262862 0.78200006 2.0001417e-38
-0.19438288 -0.069262862 0.78200006 2.0094687e-38
-0.19289334 -0.069262862 0.78200006 2.0279076e-38
-0.19140382 -0.069262862 0.78200006 2.037163e-38
-0.1899143 -0.069262862 0.78200006 2.0463827e-38
-0.18842478 -0.069262862 0.78200006 2.0648218e-38
-0.18741335 -0.06944 0.78400004 2.0740774e-38
-0.18592 -0.06944 0.78400004 2.0925526e-38
-0.18489714 -0.069617145 0.78600001 2.1110996e-38
-0.18386668 -0.06979429 0.78800005 2.1294312e-38
-0.18259715 -0.069882862 0.78900003 2.1571618e-38
-0.18109429 -0.069882862 0.78900003 2.1849637e-38
-0.18004666 -0.07006 0.79100001 2.2124788e-38
-0.17853999 -0.07006 0.79100001 2.2401728e-38
-0.17703332 -0.07006 0.79100001 2.267795e-38
-0.17597048 -0.070237145 0.79300004 2.2863422e-38
-0.17446001 -0.070237145 0.79300004 2.3139654e-38
-0.17338572 -0.07041429 0.79500002 2.3324347e-38
-0.17230381 -0.070591427 0.79700005 1.8614137e-38
-0.171 -0.07068 0.79800004 1.3902471e-38
-0.16990477 -0.070857145 0.80000001 1.2798579e-38
-0.22391906 -0.069073342 0.79700005 1.926202e-38
-0.22184286 -0.068900004 0.79500002 1.9353501e-38
-0.22032857 -0.068900004 0.79500002 1.9536102e-38
-0.21620667 -0.068553336 0.79100001 1.9628313e-38
-0.21388572 -0.068293341 0.78800005 1.9538986e-38
-0.21238478 -0.068293341 0.78800005 1.95397e-38
-0.21034856 -0.068120003 0.78600001 1.9631892e-38
-0.20885143 -0.068120003 0.78600001 1.9632248e-38
-0.20682667 -0.067946665 0.78400004 1.9724086e-38
-0.20533334 -0.067946665 0.78400004 1.9816283e-38
-0.20384002 -0.067946665 0.78400004 2.0001034e-38
-0.20234667 -0.067946665 0.78400004 2.0003908e-38
-0.20085335 -0.067946665 0.78400004 2.0094675e-38
-0.19936 -0.067946665 0.78400004 2.0093964e-38
-0.19786668 -0.067946665 0.78400004 2.0186879e-38
-0.19637334 -0.067946665 0.78400004 2.0279793e-38
-0.19438288 -0.067773335 0.78200006 2.0371629e-38
-0.19289334 -0.067773335 0.78200006 2.0371989e-38
-0.19140382 -0.067773335 0.78200006 2.0464545e-38
-0.1899143 -0.067773335 0.78200006 2.0557459e-38
-0.18842478 -0.067773335 0.78200006 2.0741134e-38
-0.18741335 -0.067946665 0.78400004 2.0924809e-38
-0.18592 -0.067946665 0.78400004 2.1110637e-38
-0.18489714 -0.068120003 0.78600001 2.1387224e-38
-0.18386668 -0.068293341 0.78800005 2.166417e-38
-0.18259715 -0.068380006 0.78900003 2.184928e-38
-0.18155333 -0.068553336 0.79100001 2.2032952e-38
-0.18004666 -0.068553336 0.79100001 2.2216626e-38
-0.17853999 -0.068553336 0.79100001 2.2493926e-38
-0.17748097 -0.068726666 0.79300004 2.277051e-38
-0.17597048 -0.068726666 0.79300004 2.3047816e-38
-0.1749 -0.068900004 0.79500002 2.3234005e-38
-0.17338572 -0.068900004 0.79500002 2.3416897e-38
-0.17252001 -0.069159999 0.79800004 1.9451766e-38
-0.171 -0.069159999 0.79800004 1.5472632e-38
-0.16990477 -0.069333337 0.80000001 1.3439621e-38
-0.22572 -0.067639999 0.79800004 1.9354206e-38
-0.2242 -0.067639999 0.79800004 1.9445693e-38
-0.22184286 -0.067385718 0.79500002 1.9445697e-38
-0.22032857 -0.067385718 0.79500002 1.9629373e-38
-0.21415715 -0.066877142 0.78900003 1.9540426e-38
-0.21238478 -0.066792384 0.78800005 1.9540776e-38
-0.21034856 -0.066622861 0.78600001 1.9633328e-38
-0.20885143 -0.066622861 0.78600001 1.9725521e-38
-0.20735428 -0.066622861 0.78600001 1.9817719e-38
-0.20533334 -0.06645333 0.78400004 1.9909202e-38
-0.20384002 -0.06645333 0.78400004 2.0001038e-38
-0.20234667 -0.06645333 0.78400004 2.0093594e-38
-0.20085335 -0.06645333 0.78400004 2.0186154e-38
-0.19936 -0.06645333 0.78400004 2.0278716e-38
-0.19786668 -0.06645333 0.78400004 2.0279434e-38
-0.19637334 -0.06645333 0.78400004 2.0371989e-38
-0.19488001 -0.06645333 0.78400004 2.0556377e-38
-0.19289334 -0.066283815 0.78200006 2.0557455e-38
-0.19140382 -0.066283815 0.78200006 2.0650369e-38
-0.1899143 -0.066283815 0.78200006 2.074185e-38
-0.18890667 -0.06645333 0.78400004 2.0925527e-38
-0.18741335 -0.06645333 0.78400004 2.1017727e-38
-0.18639429 -0.066622861 0.78600001 2.1203913e-38
-0.18489714 -0.066622861 0.78600001 2.1478706e-38
-0.18340001 -0.066622861 0.78600001 2.1757803e-38
-0.18259715 -0.066877142 0.78900003 2.1849284e-38
-0.18155333 -0.067046665 0.79100001 2.1941121e-38
-0.18004666 -0.067046665 0.79100001 2.2216629e-38
-0.17899144 -0.067216195 0.79300004 2.249429e-38
-0.17748097 -0.067216195 0.79300004 2.2678682e-38
-0.17597048 -0.067216195 0.79300004 2.2957064e-38
-0.1749 -0.067385718 0.79500002 2.3141458e-38
-0.17338572 -0.067385718 0.79500002 2.3417612e-38
-0.17252001 -0.067639999 0.79800004 2.0466609e-38
-0.17142858 -0.06780953 0.80000001 1.7502329e-38
-0.16852573 -0.068487622 0.80800003 1.1608714e-38
-0.16698666 -0.068487622 0.80800003 1.2251914e-38
-0.22572 -0.066119999 0.79800004 1.9537524e-38
-0.22391906 -0.066037148 0.79700005 1.9537891e-38
-0.22184286 -0.065871432 0.79500002 1.9630088e-38
-0.22032857 -0.065871432 0.79500002 1.9631167e-38
-0.21415715 -0.065374292 0.78900003 1.9540066e-38
-0.21238478 -0.065291435 0.78800005 1.9632973e-38
-0.21088381 -0.065291435 0.78800005 1.9725169e-38
-0.20885143 -0.065125719 0.78600001 1.9818082e-38
-0.20735428 -0.065125719 0.78600001 1.9909922e-38
-0.20585714 -0.065125719 0.78600001 2.0002122e-38
-0.20435999 -0.065125719 0.78600001 2.0093957e-38
-0.20234667 -0.064960003 0.78400004 2.0185794e-38
-0.20085335 -0.064960003 0.78400004 2.0370906e-38
-0.19936 -0.064960003 0.78400004 2.0372348e-38
-0.19786668 -0.064960003 0.78400004 2.0464542e-38
-0.19637334 -0.064960003 0.78400004 2.0557096e-38
-0.19488001 -0.064960003 0.78400004 2.0740769e-38
-0.19338667 -0.064960003 0.78400004 2.0833683e-38
-0.19189334 -0.064960003 0.78400004 2.0925521e-38
-0.1904 -0.064960003 0.78400004 2.101736e-38
-0.18890667 -0.064960003 0.78400004 2.1109918e-38
-0.18789144 -0.065125719 0.78600001 2.1202475e-38
-0.18639429 -0.065125719 0.78600001 2.1295391e-38
-0.18489714 -0.065125719 0.78600001 2.1570543e-38
-0.18386668 -0.065291435 0.78800005 2.184928e-38
-0.18259715 -0.065374292 0.78900003 2.1848924e-38
-0.18155333 -0.065540001 0.79100001 2.1941121e-38
-0.18004666 -0.065540001 0.79100001 2.2216629e-38
-0.17899144 -0.065705717 0.79300004 2.2586843e-38
-0.17748097 -0.065705717 0.79300004 2.2678682e-38
-0.17597048 -0.065705717 0.79300004 2.2863795e-38
-0.1749 -0.065871432 0.79500002 2.3140743e-38
-0.17338572 -0.065871432 0.79500002 2.3417638e-38
-0.17185715 -0.06645143 0.80200005 1.9622095e-38
-0.17075428 -0.066617139 0.80400002 1.4910753e-38
-0.16964382 -0.066782854 0.80600005 1.0319383e-38
-0.16852573 -0.066948578 0.80800003 1.1241732e-38
-0.16698666 -0.066948578 0.80800003 1.2251913e-38
-0.22572 -0.064599998 0.79800004 1.9629364e-38
-0.22391906 -0.064519048 0.79700005 1.9721566e-38
-0.22184286 -0.064357147 0.79500002 1.9814479e-38
-0.22032857 -0.064357147 0.79500002 1.9814481e-38
-0.21826382 -0.064195246 0.79300004 1.9814845e-38
-0.21415715 -0.063871428 0.78900003 1.9723734e-38
-0.21265429 -0.063871428 0.78900003 1.9724813e-38
-0.21088381 -0.063790478 0.78800005 1.9817012e-38
-0.20938288 -0.063790478 0.78800005 1.9910286e-38
-0.20735428 -0.063628569 0.78600001 1.9910649e-38
-0.20585714 -0.063628569 0.78600001 2.0001771e-38
-0.20435999 -0.063628569 0.78600001 2.0187236e-38
-0.20286286 -0.063628569 0.78600001 2.0278354e-38
-0.20136572 -0.063628569 0.78600001 2.0373064e-38
-0.19986857 -0.063628569 0.78600001 2.0464186e-38
-0.19786668 -0.063466676 0.78400004 2.0464545e-38
-0.19637334 -0.063466676 0.78400004 2.0648576e-38
-0.19488001 -0.063466676 0.78400004 2.0832967e-38
-0.19338667 -0.063466676 0.78400004 2.0924805e-38
-0.19189334 -0.063466676 0.78400004 2.1108479e-38
-0.1904 -0.063466676 0.78400004 2.1109917e-38
-0.18890667 -0.063466676 0.78400004 2.1202474e-38
-0.18789144 -0.063628569 0.78600001 2.1294672e-38
-0.18639429 -0.063628569 0.78600001 2.1387228e-38
-0.18489714 -0.063628569 0.78600001 2.1663098e-38
-0.18386668 -0.063790478 0.78800005 2.1940758e-38
-0.18305999 -0.064033337 0.79100001 2.1940759e-38
-0.18155333 -0.064033337 0.79100001 2.2032956e-38
-0.18004666 -0.064033337 0.79100001 2.2309183e-38
-0.17899144 -0.064195246 0.79300004 2.2679755e-38
-0.17748097 -0.064195246 0.79300004 2.267904e-38
-0.17597048 -0.064195246 0.79300004 2.2770884e-38
-0.1749 -0.064357147 0.79500002 2.3047834e-38
-0.17338572 -0.064357147 0.79500002 2.3417666e-38
-0.17185715 -0.064923815 0.80200005 2.0639836e-38
-0.17075428 -0.065085717 0.80400002 1.5282023e-38
-0.16964382 -0.065247618 0.80600005 9.9480868e-39
-0.16852573 -0.065409526 0.80800003 1.1055193e-38
-0.16698666 -0.065409526 0.80800003 1.206824e-38
-0.16544762 -0.065409526 0.80800003 1.2068228e-38
-0.22572 -0.063079998 0.79800004 1.981267e-38
-0.22391906 -0.063000955 0.79700005 1.9905229e-38
-0.22184286 -0.062842853 0.79500002 1.9997427e-38
-0.22032857 -0.062842853 0.79500002 1.999815e-38
-0.21826382 -0.062684759 0.79300004 1.9998515e-38
-0.21675335 -0.062684759 0.79300004 1.9907044e-38
-0.2147 -0.062526666 0.79100001 1.9907765e-38
-0.21265429 -0.062368572 0.78900003 1.9908488e-38
-0.21115144 -0.062368572 0.78900003 2.0001403e-38
-0.20938288 -0.062289529 0.78800005 2.0003559e-38
-0.20788191 -0.062289529 0.78800005 2.0002486e-38
-0.20585714 -0.062131427 0.78600001 2.0093248e-38
-0.20435999 -0.062131427 0.78600001 2.0278713e-38
-0.20286286 -0.062131427 0.78600001 2.0370908e-38
-0.20136572 -0.062131427 0.78600001 2.0463464e-38
-0.19986857 -0.062131427 0.78600001 2.0464186e-38
-0.19786668 -0.061973337 0.78400004 2.0556023e-38
-0.19637334 -0.061973337 0.78400004 2.0740054e-38
-0.19488001 -0.061973337 0.78400004 2.1016997e-38
-0.19338667 -0.061973337 0.78400004 2.1111346e-38
-0.19189334 -0.061973337 0.78400004 2.1294661e-38
-0.19088572 -0.062131427 0.78600001 2.1294665e-38
-0.18938857 -0.062131427 0.78600001 2.1386867e-38
-0.18789144 -0.062131427 0.78600001 2.1387591e-38
-0.18686858 -0.062289529 0.78800005 2.1479427e-38
-0.18489714 -0.062131427 0.78600001 2.1756009e-38
-0.18386668 -0.062289529 0.78800005 2.212407e-38
-0.18305999 -0.062526666 0.79100001 2.2125148e-38
-0.18155333 -0.062526666 0.79100001 2.2124793e-38
-0.18004666 -0.062526666 0.79100001 2.2402098e-38
-0.17899144 -0.062684759 0.79300004 2.2770157e-38
-0.17792857 -0.062842853 0.79500002 2.2679398e-38
-0.17641428 -0.062842853 0.79500002 2.2679403e-38
-0.1749 -0.062842853 0.79500002 2.3047111e-38
-0.17185715 -0.063396193 0.80200005 2.1745851e-38
-0.17075428 -0.063554287 0.80400002 1.5653394e-38
-0.16964382 -0.063712381 0.80600005 9.6711735e-39
-0.16852573 -0.063870475 0.80800003 1.077679e-38
-0.16698666 -0.063870475 0.80800003 1.1975312e-38
-0.16544762 -0.063870475 0.80800003 1.1882037e-38
-0.22572 -0.061560001 0.79800004 1.972047e-38
-0.2242 -0.061560001 0.79800004 1.9814461e-38
-0.22184286 -0.061328575 0.79500002 1.9999576e-38
-0.22032857 -0.061328575 0.79500002 1.9998866e-38
-0.21826382 -0.061174288 0.79300004 2.0090349e-38
-0.21675335 -0.061174288 0.79300004 1.9998879e-38
-0.2147 -0.061019998 0.79100001 1.9999962e-38
-0.21319333 -0.061019998 0.79100001 2.0001404e-38
-0.21115144 -0.060865719 0.78900003 2.0094319e-38
-0.20964858 -0.060865719 0.78900003 2.0002487e-38
-0.20788191 -0.060788572 0.78800005 1.9911011e-38
-0.20638096 -0.060788572 0.78800005 2.0094683e-38
-0.20488 -0.060788572 0.78800005 2.0278355e-38
-0.20286286 -0.060634285 0.78600001 2.0370911e-38
-0.20136572 -0.060634285 0.78600001 2.0554584e-38
-0.19986857 -0.060634285 0.78600001 2.0648216e-38
-0.19786668 -0.060480002 0.78400004 2.0739694e-38
-0.19637334 -0.060480002 0.78400004 2.0924444e-38
-0.19488001 -0.060480002 0.78400004 2.1109192e-38
-0.19338667 -0.060480002 0.78400004 2.1202107e-38
-0.19189334 -0.060480002 0.78400004 2.1295021e-38
-0.1904 -0.060480002 0.78400004 2.1295025e-38
-0.18938857 -0.060634285 0.78600001 2.1295394e-38
-0.18789144 -0.060634285 0.78600001 2.1387241e-38
-0.18686858 -0.060788572 0.78800005 2.1479789e-38
-0.18489714 -0.060634285 0.78600001 2.1755652e-38
-0.18386668 -0.060788572 0.78800005 2.2034747e-38
-0.18259715 -0.060865719 0.78900003 2.2033314e-38
-0.18155333 -0.061019998 0.79100001 2.2125153e-38
-0.18004666 -0.061019998 0.79100001 2.2309547e-38
-0.17899144 -0.061174288 0.79300004 2.2493216e-38
-0.17748097 -0.061174288 0.79300004 2.2585767e-38
-0.17597048 -0.061174288 0.79300004 2.2678324e-38
-0.1749 -0.061328575 0.79500002 2.2863434e-38
-0.17338572 -0.061328575 0.79500002 2.3140006e-38
-0.17117906 -0.062177144 0.80600005 1.7498796e-38
-0.17006476 -0.062331434 0.80800003 1.2700698e-38
-0.16852573 -0.062331434 0.80800003 1.298261e-38
-0.16698666 -0.062331434 0.80800003 1.3260274e-38
-0.16544762 -0.062331434 0.80800003 1.2983339e-38
-0.22572 -0.060040005 0.79800004 1.9720473e-38
-0.2242 -0.060040005 0.79800004 1.9815539e-38
-0.22184286 -0.059814285 0.79500002 1.9999217e-38
-0.22032857 -0.059814285 0.79500002 2.0091418e-38
-0.21826382 -0.059663814 0.79300004 2.0182177e-38
-0.21675335 -0.059663814 0.79300004 2.0090701e-38
-0.2147 -0.059513334 0.79100001 2.0092505e-38
-0.21319333 -0.059513334 0.79100001 2.0094669e-38
-0.21168666 -0.059513334 0.79100001 2.0186512e-38
-0.21018 -0.059513334 0.79100001 2.0002849e-38
-0.20814572 -0.059362859 0.78900003 1.9911013e-38
-0.20664287 -0.059362859 0.78900003 2.0094684e-38
-0.20513999 -0.059362859 0.78900003 2.0278357e-38
-0.20337906 -0.059287623 0.78800005 2.0462747e-38
-0.2018781 -0.059287623 0.78800005 2.0738973e-38
-0.19986857 -0.059137143 0.78600001 2.0832247e-38
-0.19837144 -0.059137143 0.78600001 2.0924084e-38
-0.19687429 -0.059137143 0.78600001 2.1108834e-38
-0.19537714 -0.059137143 0.78600001 2.1292865e-38
-0.19388001 -0.059137143 0.78600001 2.1292149e-38
-0.19238286 -0.059137143 0.78600001 2.1295021e-38
-0.19088572 -0.059137143 0.78600001 2.1295025e-38
-0.18938857 -0.059137143 0.78600001 2.1295031e-38
-0.18789144 -0.059137143 0.78600001 2.1386874e-38
-0.18686858 -0.059287623 0.78800005 2.1571261e-38
-0.18536763 -0.059287623 0.78800005 2.1755648e-38
-0.18386668 -0.059287623 0.78800005 2.1940398e-38
-0.18259715 -0.059362859 0.78900003 2.2033312e-38
-0.18109429 -0.059362859 0.78900003 2.212515e-38
-0.18004666 -0.059513334 0.79100001 2.2217708e-38
-0.17853999 -0.059513334 0.79100001 2.230954e-38
-0.17748097 -0.059663814 0.79300004 2.2491774e-38
-0.17597048 -0.059663814 0.79300004 2.2678319e-38
-0.1749 -0.059814285 0.79500002 2.2771595e-38
-0.17338572 -0.059814285 0.79500002 2.295562e-38
-0.17117906 -0.060641907 0.80600005 1.9252681e-38
-0.17006476 -0.060792383 0.80800003 1.5845376e-38
-0.16852573 -0.060792383 0.80800003 1.5193495e-38
-0.16740002 -0.060942862 0.81000006 1.4641405e-38
-0.16585715 -0.060942862 0.81000006 1.4089316e-38
-0.22572 -0.05852 0.79800004 1.9628642e-38
-0.22391906 -0.058446668 0.79700005 1.9724424e-38
-0.22184286 -0.0583 0.79500002 1.9816622e-38
-0.22032857 -0.0583 0.79500002 2.0091058e-38
-0.21826382 -0.058153339 0.79300004 2.036584e-38
-0.21675335 -0.058153339 0.79300004 2.0182881e-38
-0.2147 -0.058006667 0.79100001 2.0001378e-38
-0.21319333 -0.058006667 0.79100001 2.0001752e-38
-0.21168666 -0.058006667 0.79100001 2.0093959e-38
-0.21018 -0.058006667 0.79100001 2.009433e-38
-0.20814572 -0.057860002 0.78900003 2.0186523e-38
-0.20664287 -0.057860002 0.78900003 2.0186523e-38
-0.20513999 -0.057860002 0.78900003 2.0186881e-38
-0.20363715 -0.057860002 0.78900003 2.037127e-38
-0.2018781 -0.05778667 0.78800005 2.055638e-38
-0.19986857 -0.057639997 0.78600001 2.0648578e-38
-0.19837144 -0.057639997 0.78600001 2.0740774e-38
-0.19687429 -0.057639997 0.78600001 2.0924805e-38
-0.19537714 -0.057639997 0.78600001 2.1109195e-38
-0.19388001 -0.057639997 0.78600001 2.1108838e-38
-0.19238286 -0.057639997 0.78600001 2.1203546e-38
-0.19137144 -0.05778667 0.78800005 2.1294667e-38
-0.18987049 -0.05778667 0.78800005 2.1294668e-38
-0.18860857 -0.057860002 0.78900003 2.1386865e-38
-0.18710573 -0.057860002 0.78900003 2.1481572e-38
-0.18560286 -0.057860002 0.78900003 2.1663809e-38
-0.1841 -0.057860002 0.78900003 2.1755289e-38
-0.18305999 -0.058006667 0.79100001 2.1848205e-38
-0.18155333 -0.058006667 0.79100001 2.1940761e-38
-0.18004666 -0.058006667 0.79100001 2.2033316e-38
-0.17899144 -0.058153339 0.79300004 2.2218059e-38
-0.17748097 -0.058153339 0.79300004 2.2400291e-38
-0.17597048 -0.058153339 0.79300004 2.2586838e-38
-0.17446001 -0.058153339 0.79300004 2.267868e-38
-0.17338572 -0.0583 0.79500002 2.2770519e-38
-0.17117906 -0.05910667 0.80600005 2.0644246e-38
-0.16964382 -0.05910667 0.80600005 1.8523343e-38
-0.16740002 -0.059400007 0.81000006 1.8066594e-38
-0.22572 -0.057 0.79800004 1.9537535e-38
-0.2242 -0.057 0.79800004 1.9633315e-38
-0.22240096 -0.056928575 0.79700005 1.9724079e-38
-0.22032857 -0.056785714 0.79500002 2.0180391e-38
-0.21826382 -0.05664286 0.79300004 2.0642076e-38
-0.21675335 -0.05664286 0.79300004 2.0275449e-38
-0.2147 -0.056499999 0.79100001 2.000103e-38
-0.21319333 -0.056499999 0.79100001 2.0001041e-38
-0.21168666 -0.056499999 0.79100001 2.0001407e-38
-0.21018 -0.056499999 0.79100001 2.0277638e-38
-0.20867334 -0.056499999 0.79100001 2.0553143e-38
-0.20716667 -0.056499999 0.79100001 2.0369471e-38
-0.20513999 -0.056357145 0.78900003 2.0186519e-38
-0.20363715 -0.056357145 0.78900003 2.0279792e-38
-0.2018781 -0.056285717 0.78800005 2.0464184e-38
-0.20037715 -0.056285717 0.78800005 2.0556743e-38
-0.19837144 -0.056142855 0.78600001 2.064858e-38
-0.19687429 -0.056142855 0.78600001 2.0740415e-38
-0.19537714 -0.056142855 0.78600001 2.0925165e-38
-0.19388001 -0.056142855 0.78600001 2.1017721e-38
-0.19238286 -0.056142855 0.78600001 2.1203187e-38
-0.19137144 -0.056285717 0.78800005 2.1294665e-38
-0.19011143 -0.056357145 0.78900003 2.1386861e-38
-0.18860857 -0.056357145 0.78900003 2.1387221e-38
-0.18710573 -0.056357145 0.78900003 2.1479417e-38
-0.18560286 -0.056357145 0.78900003 2.1571973e-38
-0.18456666 -0.056499999 0.79100001 2.1663812e-38
-0.18305999 -0.056499999 0.79100001 2.1756011e-38
-0.18155333 -0.056499999 0.79100001 2.1848565e-38
-0.18004666 -0.056499999 0.79100001 2.1940762e-38
-0.17899144 -0.05664286 0.79300004 2.2125865e-38
-0.17748097 -0.05664286 0.79300004 2.2309176e-38
-0.17641428 -0.056785714 0.79500002 2.2494286e-38
-0.1749 -0.056785714 0.79500002 2.2586126e-38
-0.17382191 -0.056928575 0.79700005 2.2678321e-38
-0.17185715 -0.057285715 0.80200005 2.3047784e-38
-0.17075428 -0.057428572 0.80400002 2.2122579e-38
-0.16964382 -0.057571433 0.80600005 2.1199884e-38
-0.16852573 -0.057714287 0.80800003 2.1379574e-38
-0.16740002 -0.057857145 0.81000006 2.1564676e-38
-0.16626666 -0.058000002 0.81200004 2.1382796e-38
-0.2242 -0.05548 0.79800004 1.953898e-38
-0.22268 -0.05548 0.79800004 1.9631894e-38
-0.22088288 -0.055410478 0.79700005 1.9907764e-38
-0.21675335 -0.055132385 0.79300004 1.9816646e-38
-0.21524286 -0.055132385 0.79300004 1.9541505e-38
-0.21373239 -0.055132385 0.79300004 1.9725183e-38
-0.21168666 -0.054993331 0.79100001 1.9908855e-38
-0.21018 -0.054993331 0.79100001 2.0093245e-38
-0.20867334 -0.054993331 0.79100001 2.027799e-38
-0.20716667 -0.054993331 0.79100001 2.0186153e-38
-0.20513999 -0.054854289 0.78900003 2.0186516e-38
-0.20363715 -0.054854289 0.78900003 2.0279073e-38
-0.2018781 -0.054784764 0.78800005 2.0463826e-38
-0.20037715 -0.054784764 0.78800005 2.0556386e-38
-0.1988762 -0.054784764 0.78800005 2.0649656e-38
-0.19687429 -0.054645717 0.78600001 2.0741133e-38
-0.19537714 -0.054645717 0.78600001 2.0741137e-38
-0.19437334 -0.054784764 0.78800005 2.0925171e-38
-0.19238286 -0.054645717 0.78600001 2.1203187e-38
-0.19137144 -0.054784764 0.78800005 2.1202828e-38
-0.19011143 -0.054854289 0.78900003 2.1295381e-38
-0.18860857 -0.054854289 0.78900003 2.1387218e-38
-0.18710573 -0.054854289 0.78900003 2.138758e-38
-0.18560286 -0.054854289 0.78900003 2.1480496e-38
-0.18456666 -0.054993331 0.79100001 2.1572335e-38
-0.18305999 -0.054993331 0.79100001 2.1664175e-38
-0.18155333 -0.054993331 0.79100001 2.175673e-38
-0.18050191 -0.055132385 0.79300004 2.1848566e-38
-0.17899144 -0.055132385 0.79300004 2.2033672e-38
-0.17748097 -0.055132385 0.79300004 2.2125509e-38
-0.17641428 -0.055271428 0.79500002 2.2310258e-38
-0.1749 -0.055271428 0.79500002 2.2402096e-38
-0.17382191 -0.055410478 0.79700005 2.2585767e-38
-0.17185715 -0.0557581 0.80200005 2.295738e-38
-0.17075428 -0.055897143 0.80400002 2.2031817e-38
-0.16894287 -0.05631429 0.81000006 2.1196702e-38
-0.16740002 -0.05631429 0.81000006 2.1201364e-38
-0.16626666 -0.056453332 0.81200004 2.1014463e-38
-0.16512571 -0.056592382 0.81400001 2.0830073e-38
-0.22780952 -0.054095238 0.80000001 1.9168409e-38
-0.22628571 -0.054095238 0.80000001 1.9354949e-38
-0.2242 -0.053959999 0.79800004 1.9447143e-38
-0.22268 -0.053959999 0.79800004 1.9631534e-38
-0.22088288 -0.053892381 0.79700005 1.9632613e-38
-0.21675335 -0.053621907 0.79300004 1.9357831e-38
-0.21524286 -0.053621907 0.79300004 1.9082328e-38
-0.21373239 -0.053621907 0.79300004 1.9449672e-38
-0.21222191 -0.053621907 0.79300004 1.9817017e-38
-0.21018 -0.053486664 0.79100001 1.9909216e-38
-0.20867334 -0.053486664 0.79100001 2.0094319e-38
-0.20716667 -0.053486664 0.79100001 2.0094316e-38
-0.20513999 -0.053351428 0.78900003 2.0186516e-38
-0.20363715 -0.053351428 0.78900003 2.0278717e-38
-0.2021343 -0.053351428 0.78900003 2.0463107e-38
-0.20063144 -0.053351428 0.78900003 2.0556021e-38
-0.1988762 -0.053283811 0.78800005 2.0741129e-38
-0.19737525 -0.053283811 0.78800005 2.0649295e-38
-0.19537714 -0.053148571 0.78600001 2.0649299e-38
-0.19437334 -0.053283811 0.78800005 2.0924808e-38
-0.19287239 -0.053283811 0.78800005 2.1202105e-38
-0.19137144 -0.053283811 0.78800005 2.1202821e-38
-0.19011143 -0.053351428 0.78900003 2.129466e-38
-0.18860857 -0.053351428 0.78900003 2.1294664e-38
-0.18710573 -0.053351428 0.78900003 2.1386502e-38
-0.18607333 -0.053486664 0.79100001 2.1480852e-38
-0.18456666 -0.053486664 0.79100001 2.1572691e-38
-0.18305999 -0.053486664 0.79100001 2.1664531e-38
-0.18155333 -0.053486664 0.79100001 2.1756368e-38
-0.18050191 -0.053621907 0.79300004 2.1848564e-38
-0.17899144 -0.053621907 0.79300004 2.1940399e-38
-0.17748097 -0.053621907 0.79300004 2.2032595e-38
-0.17641428 -0.053757142 0.79500002 2.2218064e-38
-0.1749 -0.053757142 0.79500002 2.2310621e-38
-0.17382191 -0.053892381 0.79700005 2.249429e-38
-0.17185715 -0.054230478 0.80200005 2.2860528e-38
-0.17075428 -0.054365713 0.80400002 2.2032904e-38
-0.16894287 -0.054771435 0.81000006 2.1013744e-38
-0.16740002 -0.054771435 0.81000006 2.0829715e-38
-0.16667619 -0.055041905 0.81400001 2.0646044e-38
-0.16532859 -0.055109527 0.81500006 2.0553845e-38
-0.22933334 -0.052571427 0.80000001 1.8983645e-38
-0.22780952 -0.052571427 0.80000001 1.9168765e-38
-0.22628571 -0.052571427 0.80000001 1.9263471e-38
-0.2247619 -0.052571427 0.80000001 1.9446783e-38
-0.22268 -0.052440003 0.79800004 1.9539696e-38
-0.22088288 -0.052374288 0.79700005 1.9539699e-38
-0.21936476 -0.052374288 0.79700005 1.96319e-38
-0.21524286 -0.052111432 0.79300004 1.9357475e-38
-0.21373239 -0.052111432 0.79300004 1.9541864e-38
-0.21222191 -0.052111432 0.79300004 1.9817733e-38
-0.21018 -0.05198 0.79100001 1.9909933e-38
-0.20867334 -0.05198 0.79100001 2.0094319e-38
-0.20716667 -0.05198 0.79100001 2.000248e-38
-0.20566 -0.05198 0.79100001 1.9911728e-38
-0.20363715 -0.051848572 0.78900003 2.0095408e-38
-0.2021343 -0.051848572 0.78900003 2.0370913e-38
-0.20063144 -0.051848572 0.78900003 2.0462747e-38
-0.1988762 -0.051782858 0.78800005 2.0557455e-38
-0.19737525 -0.051782858 0.78800005 2.0556381e-38
-0.1958743 -0.051782858 0.78800005 2.0463473e-38
-0.19437334 -0.051782858 0.78800005 2.0647864e-38
-0.19287239 -0.051782858 0.78800005 2.0925877e-38
-0.19161429 -0.051848572 0.78900003 2.1018067e-38
-0.19011143 -0.051848572 0.78900003 2.1110626e-38
-0.18908666 -0.05198 0.79100001 2.120211e-38
-0.18710573 -0.051848572 0.78900003 2.1293588e-38
-0.18607333 -0.05198 0.79100001 2.1293591e-38
-0.18456666 -0.05198 0.79100001 2.1293595e-38
-0.18305999 -0.05198 0.79100001 2.138723e-38
-0.18201238 -0.052111432 0.79300004 2.148086e-38
-0.18050191 -0.052111432 0.79300004 2.1664532e-38
-0.17899144 -0.052111432 0.79300004 2.1848203e-38
-0.17792857 -0.052242856 0.79500002 2.1940039e-38
-0.17641428 -0.052242856 0.79500002 2.2034034e-38
-0.1749 -0.052242856 0.79500002 2.2126594e-38
-0.17382191 -0.052374288 0.79700005 2.2311337e-38
-0.17228572 -0.052834287 0.80400002 2.2675426e-38
-0.17117906 -0.052965716 0.80600005 2.2032558e-38
-0.17006476 -0.053097144 0.80800003 2.1381092e-38
-0.16894287 -0.053228576 0.81000006 2.1105218e-38
-0.16740002 -0.053228576 0.81000006 2.0829353e-38
-0.16667619 -0.053491428 0.81400001 2.0737519e-38
-0.16532859 -0.053557146 0.81500006 2.0645678e-38
-0.22933334 -0.051047619 0.80000001 1.8983996e-38
-0.22780952 -0.051047619 0.80000001 1.9077633e-38
-0.22628571 -0.051047619 0.80000001 1.9262023e-38
-0.2247619 -0.051047619 0.80000001 1.9354936e-38
-0.22268 -0.050920002 0.79800004 1.9538972e-38
-0.22116001 -0.050920002 0.79800004 1.9539336e-38
-0.21936476 -0.050856192 0.79700005 1.954006e-38
-0.21524286 -0.050600957 0.79300004 1.9632982e-38
-0.21373239 -0.050600957 0.79300004 1.9725898e-38
-0.21222191 -0.050600957 0.79300004 1.990993e-38
-0.21071143 -0.050600957 0.79300004 2.0002487e-38
-0.20867334 -0.050473336 0.79100001 2.009432e-38
-0.20716667 -0.050473336 0.79100001 1.9911005e-38
-0.20513999 -0.050345715 0.78900003 1.9727703e-38
-0.20415334 -0.050473336 0.79100001 2.0003936e-38
-0.2021343 -0.050345715 0.78900003 2.0278721e-38
-0.20063144 -0.050345715 0.78900003 2.0369835e-38
-0.19912858 -0.050345715 0.78900003 2.0465259e-38
-0.19737525 -0.050281905 0.78800005 2.037199e-38
-0.1958743 -0.050281905 0.78800005 2.0371636e-38
-0.19462001 -0.050345715 0.78900003 2.0462756e-38
-0.19311716 -0.050345715 0.78900003 2.0650013e-38
-0.19161429 -0.050345715 0.78900003 2.0832966e-38
-0.19059333 -0.050473336 0.79100001 2.1017357e-38
-0.18908666 -0.050473336 0.79100001 2.1109913e-38
-0.18758 -0.050473336 0.79100001 2.1201749e-38
-0.18607333 -0.050473336 0.79100001 2.1110276e-38
-0.18456666 -0.050473336 0.79100001 2.111028e-38
-0.18352287 -0.050600957 0.79300004 2.1202121e-38
-0.18201238 -0.050600957 0.79300004 2.1295393e-38
-0.18050191 -0.050600957 0.79300004 2.148086e-38
-0.17899144 -0.050600957 0.79300004 2.1756006e-38
-0.17792857 -0.050728571 0.79500002 2.1847842e-38
-0.17641428 -0.050728571 0.79500002 2.1940042e-38
-0.17534001 -0.050856192 0.79700005 2.20326e-38
-0.17404 -0.050920002 0.79800004 2.2124792e-38
-0.17228572 -0.051302858 0.80400002 2.2492118e-38
-0.17117906 -0.051430479 0.80600005 2.2032571e-38
-0.16964382 -0.051430479 0.80600005 2.1660553e-38
-0.16894287 -0.051685717 0.81000006 2.1197058e-38
-0.16781335 -0.051813334 0.81200004 2.0829354e-38
-0.16667619 -0.051940955 0.81400001 2.0737517e-38
-0.16532859 -0.052004766 0.81500006 2.0737513e-38
-0.22933334 -0.049523808 0.80000001 1.8984706e-38
-0.22780952 -0.049523808 0.80000001 1.907726e-38
-0.22628571 -0.049523808 0.80000001 1.9261293e-38
-0.2247619 -0.049523808 0.80000001 1.9354566e-38
-0.2232381 -0.049523808 0.80000001 1.9446412e-38
-0.22116001 -0.049400002 0.79800004 1.9447139e-38
-0.21936476 -0.049338099 0.79700005 1.9448222e-38
-0.21784668 -0.049338099 0.79700005 1.9539347e-38
-0.21578573 -0.049214285 0.79500002 1.9630831e-38
-0.21427143 -0.049214285 0.79500002 1.9632631e-38
-0.21222191 -0.049090479 0.79300004 1.9726981e-38
-0.21071143 -0.049090479 0.79300004 1.9911013e-38
-0.20867334 -0.048966669 0.79100001 2.0186876e-38
-0.20716667 -0.048966669 0.79100001 1.991029e-38
-0.20566 -0.048966669 0.79100001 1.9725196e-38
-0.20415334 -0.048966669 0.79100001 1.9910313e-38
-0.2021343 -0.048842859 0.78900003 2.018653e-38
-0.20063144 -0.048842859 0.78900003 2.0278e-38
-0.19912858 -0.048842859 0.78900003 2.0373064e-38
-0.19762571 -0.048842859 0.78900003 2.0371989e-38
-0.19612287 -0.048842859 0.78900003 2.0371993e-38
-0.19462001 -0.048842859 0.78900003 2.0464191e-38
-0.19311716 -0.048842859 0.78900003 2.0557822e-38
-0.19161429 -0.048842859 0.78900003 2.0741136e-38
-0.19059333 -0.048966669 0.79100001 2.083297e-38
-0.18908666 -0.048966669 0.79100001 2.0925523e-38
-0.18758 -0.048966669 0.79100001 2.1018436e-38
-0.18607333 -0.048966669 0.79100001 2.0926243e-38
-0.18456666 -0.048966669 0.79100001 2.0925888e-38
-0.18352287 -0.049090479 0.79300004 2.101773e-38
-0.18201238 -0.049090479 0.79300004 2.1201762e-38
-0.18050191 -0.049090479 0.79300004 2.1388306e-38
-0.17899144 -0.049090479 0.79300004 2.1572334e-38
-0.17792857 -0.049214285 0.79500002 2.166417e-38
-0.17685811 -0.049338099 0.79700005 2.1756367e-38
-0.17534001 -0.049338099 0.79700005 2.1848565e-38
-0.17228572 -0.049771432 0.80400002 2.2677589e-38
-0.17117906 -0.049895242 0.80600005 2.2310603e-38
-0.16964382 -0.049895242 0.80600005 2.2035795e-38
-0.16894287 -0.050142862 0.81000006 2.1289615e-38
-0.16740002 -0.050142862 0.81000006 2.0645327e-38
-0.16626666 -0.050266668 0.81200004 2.0645682e-38
-0.16512571 -0.050390474 0.81400001 2.0646395e-38
-0.1637762 -0.050452381 0.81500006 2.0554198e-38
-0.22685143 -0.048119999 0.80200005 1.9261655e-38
-0.22532381 -0.048119999 0.80200005 1.9262375e-38
-0.2232381 -0.048 0.80000001 1.9353498e-38
-0.22171429 -0.048 0.80000001 1.9353147e-38
-0.21964 -0.047880001 0.79800004 1.9445348e-38
-0.21784668 -0.047820002 0.79700005 1.9537549e-38
-0.21578573 -0.047700003 0.79500002 1.9630464e-38
-0.21427143 -0.047700003 0.79500002 1.9631544e-38
-0.21222191 -0.047580004 0.79300004 1.9631897e-38
-0.21071143 -0.047580004 0.79300004 1.9907758e-38
-0.20867334 -0.047460001 0.79100001 2.0275825e-38
-0.20716667 -0.047460001 0.79100001 2.0001403e-38
-0.20566 -0.047460001 0.79100001 1.9817381e-38
-0.20415334 -0.047460001 0.79100001 1.9909944e-38
-0.20264667 -0.047460001 0.79100001 2.0094687e-38
-0.20114 -0.047460001 0.79100001 2.0186519e-38
-0.19963333 -0.047460001 0.79100001 2.0279073e-38
-0.19812667 -0.047460001 0.79100001 2.028015e-38
-0.19612287 -0.047340002 0.78900003 2.037199e-38
-0.19511333 -0.047460001 0.79100001 2.0464907e-38
-0.19360666 -0.047460001 0.79100001 2.0556743e-38
-0.1921 -0.047460001 0.79100001 2.0648939e-38
-0.19059333 -0.047460001 0.79100001 2.0740773e-38
-0.18908666 -0.047460001 0.79100001 2.074149e-38
-0.18758 -0.047460001 0.79100001 2.0833328e-38
-0.18607333 -0.047460001 0.79100001 2.083369e-38
-0.18503334 -0.047580004 0.79300004 2.0833335e-38
-0.18352287 -0.047580004 0.79300004 2.0925177e-38
-0.18201238 -0.047580004 0.79300004 2.1110645e-38
-0.18050191 -0.047580004 0.79300004 2.1295754e-38
-0.17944287 -0.047700003 0.79500002 2.1479422e-38
-0.1783762 -0.047820002 0.79700005 2.1571614e-38
-0.17685811 -0.047820002 0.79700005 2.1663811e-38
-0.17556001 -0.047880001 0.79800004 2.1756367e-38
-0.17447619 -0.048 0.80000001 2.1940395e-38
-0.17381716 -0.048239999 0.80400002 2.2401366e-38
-0.17271429 -0.048360001 0.80600005 2.2860898e-38
-0.17117906 -0.048360001 0.80600005 2.2586106e-38
-0.17006476 -0.048480004 0.80800003 2.2399544e-38
-0.16894287 -0.048600003 0.81000006 2.1474352e-38
-0.16781335 -0.048720002 0.81200004 2.0553126e-38
-0.16667619 -0.048840001 0.81400001 2.0554201e-38
-0.16512571 -0.048840001 0.81400001 2.0646392e-38
-0.1637762 -0.048900004 0.81500006 2.0554913e-38
-0.22685143 -0.046592385 0.80200005 1.9170182e-38
-0.22532381 -0.046592385 0.80200005 1.9169825e-38
-0.2232381 -0.046476189 0.80000001 1.9261304e-38
-0.22171429 -0.046476189 0.80000001 1.9353143e-38
-0.21964 -0.046360001 0.79800004 1.9444985e-38
-0.21784668 -0.046301909 0.79700005 1.9629739e-38
-0.21632859 -0.046301909 0.79700005 1.9905963e-38
-0.21427143 -0.046185717 0.79500002 1.9723727e-38
-0.21275714 -0.046185717 0.79500002 1.9632596e-38
-0.21071143 -0.046069525 0.79300004 1.9724421e-38
-0.20920096 -0.046069525 0.79300004 1.9908826e-38
-0.20716667 -0.045953333 0.79100001 1.981665e-38
-0.20566 -0.045953333 0.79100001 1.9724822e-38
-0.20415334 -0.045953333 0.79100001 1.9909936e-38
-0.20264667 -0.045953333 0.79100001 2.0094682e-38
-0.20114 -0.045953333 0.79100001 2.0095039e-38
-0.19963333 -0.045953333 0.79100001 2.0093247e-38
-0.19812667 -0.045953333 0.79100001 2.0094326e-38
-0.19662 -0.045953333 0.79100001 2.0187242e-38
-0.19511333 -0.045953333 0.79100001 2.0280159e-38
-0.19360666 -0.045953333 0.79100001 2.0373071e-38
-0.1921 -0.045953333 0.79100001 2.0373071e-38
-0.19059333 -0.045953333 0.79100001 2.0464906e-38
-0.18908666 -0.045953333 0.79100001 2.05571e-38
-0.18758 -0.045953333 0.79100001 2.0649297e-38
-0.18607333 -0.045953333 0.79100001 2.0649302e-38
-0.18503334 -0.046069525 0.79300004 2.0741143e-38
-0.18352287 -0.046069525 0.79300004 2.0925537e-38
-0.18201238 -0.046069525 0.79300004 2.1019529e-38
-0.18095714 -0.046185717 0.79500002 2.1203204e-38
-0.17944287 -0.046185717 0.79500002 2.1295393e-38
-0.1783762 -0.046301909 0.79700005 2.1387583e-38
-0.17708001 -0.046360001 0.79800004 2.1479778e-38
-0.17556001 -0.046360001 0.79800004 2.1571256e-38
-0.17447619 -0.046476189 0.80000001 2.1754927e-38
-0.17381716 -0.046708573 0.80400002 2.2031512e-38
-0.17228572 -0.046708573 0.80400002 2.2399926e-38
-0.17117906 -0.046824764 0.80600005 2.231024e-38
-0.17006476 -0.046940953 0.80800003 2.221228e-38
-0.16894287 -0.047057144 0.81000006 2.1380355e-38
-0.16740002 -0.047057144 0.81000006 2.0553119e-38
-0.16626666 -0.047173332 0.81200004 2.0553121e-38
-0.16512571 -0.047289524 0.81400001 2.0645313e-38
-0.1637762 -0.047347624 0.81500006 2.0460924e-38
-0.22741716 -0.045177143 0.80400002 1.907763e-38
-0.22379619 -0.045064762 0.80200005 1.9261655e-38
-0.22171429 -0.044952381 0.80000001 1.9353842e-38
-0.22019047 -0.044952381 0.80000001 1.9446049e-38
-0.21812001 -0.044840001 0.79800004 1.9814121e-38
-0.21632859 -0.044783812 0.79700005 2.0181467e-38
-0.21481049 -0.044783812 0.79700005 1.9907758e-38
-0.21275714 -0.044671431 0.79500002 1.9724438e-38
-0.21071143 -0.04455905 0.79300004 1.9632954e-38
-0.20920096 -0.04455905 0.79300004 1.954113e-38
-0.20769049 -0.04455905 0.79300004 1.9541501e-38
-0.20618001 -0.04455905 0.79300004 1.9632983e-38
-0.20466954 -0.04455905 0.79300004 1.9818095e-38
-0.20264667 -0.044446666 0.79100001 2.0095036e-38
-0.20114 -0.044446666 0.79100001 2.0003558e-38
-0.19963333 -0.044446666 0.79100001 2.0001048e-38
-0.19812667 -0.044446666 0.79100001 2.0001767e-38
-0.19662 -0.044446666 0.79100001 2.0001777e-38
-0.19511333 -0.044446666 0.79100001 2.009398e-38
-0.19360666 -0.044446666 0.79100001 2.0187606e-38
-0.1921 -0.044446666 0.79100001 2.0186527e-38
-0.19059333 -0.044446666 0.79100001 2.0278005e-38
-0.18908666 -0.044446666 0.79100001 2.0369842e-38
-0.18758 -0.044446666 0.79100001 2.0465625e-38
-0.18654382 -0.04455905 0.79300004 2.0557105e-38
-0.18503334 -0.04455905 0.79300004 2.0740781e-38
-0.18352287 -0.04455905 0.79300004 2.0834059e-38
-0.18247142 -0.044671431 0.79500002 2.101773e-38
-0.18095714 -0.044671431 0.79500002 2.1109922e-38
-0.1798943 -0.044783812 0.79700005 2.1202474e-38
-0.1783762 -0.044783812 0.79700005 2.1202833e-38
-0.17708001 -0.044840001 0.79800004 2.1295028e-38
