# .PCD v0.7 - Point Cloud Data file format
VERSION 0.7
FIELDS x y z rgb
SIZE 4 4 4 4
TYPE F F F F
COUNT 1 1 1 1
WIDTH 984
HEIGHT 1
VIEWPOINT 0 0 0 1 0 0 0
POINTS 984
DATA ascii
0.28378573 -0.10011905 0.72500002 1.3775686e-38
0.28516668 -0.10011905 0.72500002 1.3683852e-38
0.28575715 -0.099842861 0.72300005 1.3592021e-38
0.28713432 -0.099842861 0.72300005 1.3500191e-38
0.28851143 -0.099842861 0.72300005 1.3408348e-38
0.28988859 -0.099842861 0.72300005 1.3592014e-38
0.29126573 -0.099842861 0.72300005 1.3775685e-38
0.29264289 -0.099842861 0.72300005 1.4051191e-38
0.29402 -0.099842861 0.72300005 1.4418533e-38
0.29539716 -0.099842861 0.72300005 1.469404e-38
0.2967743 -0.099842861 0.72300005 1.4969546e-38
0.29815143 -0.099842861 0.72300005 1.5437333e-38
0.29911432 -0.099704772 0.72200006 1.5905203e-38
0.30090573 -0.099842861 0.72300005 1.6657549e-38
0.30366001 -0.099842861 0.72300005 1.7966967e-38
0.30588096 -0.10011905 0.72500002 1.8526186e-38
0.30726191 -0.10011905 0.72500002 1.5293605e-38
0.30906856 -0.10025714 0.72600001 1.2138176e-38
0.31173429 -0.10067143 0.72900003 1.1412801e-38
0.31312287 -0.10067143 0.72900003 1.0774985e-38
0.31537428 -0.10094762 0.73100001 1.0775713e-38
0.31676668 -0.10094762 0.73100001 1.0867909e-38
0.31815907 -0.10094762 0.73100001 1.086791e-38
0.31955141 -0.10094762 0.73100001 1.0868268e-38
0.3209438 -0.10094762 0.73100001 1.0868626e-38
0.2564286 -0.10214286 0.75000006 1.7414516e-38
0.25785717 -0.10214286 0.75000006 1.7506356e-38
0.25928575 -0.10214286 0.75000006 1.759854e-38
0.25967145 -0.10173429 0.74700004 1.7782203e-38
0.2610943 -0.10173429 0.74700004 1.8058776e-38
0.2618143 -0.10146192 0.74500006 1.8059844e-38
0.26252669 -0.10118953 0.74300003 1.815131e-38
0.26394191 -0.10118953 0.74300003 1.8244931e-38
0.26500002 -0.10105333 0.74200004 1.8426782e-38
0.26533619 -0.10064476 0.73900002 1.8241291e-38
0.26674381 -0.10064476 0.73900002 1.8146964e-38
0.26742575 -0.10037239 0.73700005 1.7869326e-38
0.26846477 -0.1002362 0.73600006 1.758805e-38
0.26913333 -0.099963814 0.73400003 1.7123464e-38
0.26979432 -0.099691436 0.73200005 1.6750729e-38
0.27118859 -0.099691436 0.73200005 1.6378354e-38
0.27258286 -0.099691436 0.73200005 1.6009217e-38
0.27360284 -0.099555232 0.73100001 1.5640081e-38
0.27499524 -0.099555232 0.73100001 1.5359541e-38
0.27563146 -0.099282861 0.72900003 1.4895332e-38
0.27664 -0.099146672 0.72800004 1.4519382e-38
0.27726287 -0.098874286 0.72600001 1.4327104e-38
0.27864572 -0.098874286 0.72600001 1.4234905e-38
0.28002858 -0.098874286 0.72600001 1.3775724e-38
0.28102383 -0.098738097 0.72500002 1.340838e-38
0.28240478 -0.098738097 0.72500002 1.3500215e-38
0.28378573 -0.098738097 0.72500002 1.3592051e-38
0.28516668 -0.098738097 0.72500002 1.3592051e-38
0.2865476 -0.098738097 0.72500002 1.3592058e-38
0.28713432 -0.098465718 0.72300005 1.3592067e-38
0.28930953 -0.098738097 0.72500002 1.3592053e-38
0.28988859 -0.098465718 0.72300005 1.4051218e-38
0.29126573 -0.098465718 0.72300005 1.4510755e-38
0.29264289 -0.098465718 0.72300005 1.4970291e-38
0.29483333 -0.098738097 0.72500002 1.5440614e-38
0.29621431 -0.098738097 0.72500002 1.6094608e-38
0.29759523 -0.098738097 0.72500002 1.6842585e-38
0.29815143 -0.098465718 0.72300005 1.7590563e-38
0.2995286 -0.098465718 0.72300005 1.8330304e-38
0.30090573 -0.098465718 0.72300005 1.9070404e-38
0.30311906 -0.098738097 0.72500002 1.9806534e-38
0.30450001 -0.098738097 0.72500002 1.8706314e-38
0.30588096 -0.098738097 0.72500002 1.7693212e-38
0.30726191 -0.098738097 0.72500002 1.4368797e-38
0.30906856 -0.098874286 0.72600001 1.1054099e-38
0.31312287 -0.099282861 0.72900003 1.1327085e-38
0.31537428 -0.099555232 0.73100001 1.1143417e-38
0.31676668 -0.099555232 0.73100001 1.1051939e-38
0.31815907 -0.099555232 0.73100001 1.0960461e-38
0.31955141 -0.099555232 0.73100001 1.0960819e-38
0.3209438 -0.099555232 0.73100001 1.0961537e-38
0.3223362 -0.099555232 0.73100001 1.1053372e-38
0.2564286 -0.10071429 0.75000006 1.7322683e-38
0.25785717 -0.10071429 0.75000006 1.7414525e-38
0.25928575 -0.10071429 0.75000006 1.7506706e-38
0.25967145 -0.10031143 0.74700004 1.7598172e-38
0.2610943 -0.10031143 0.74700004 1.7781839e-38
0.2618143 -0.10004286 0.74500006 1.7783269e-38
0.26252669 -0.099774286 0.74300003 1.787584e-38
0.26394191 -0.099774286 0.74300003 1.7784382e-38
0.26500002 -0.099640004 0.74200004 1.7785094e-38
0.26533619 -0.099237144 0.73900002 1.7784731e-38
0.26602194 -0.09896858 0.73700005 1.7692532e-38
0.26706287 -0.098834291 0.73600006 1.7602128e-38
0.26846477 -0.098834291 0.73600006 1.7603547e-38
0.26913333 -0.09856572 0.73400003 1.7602814e-38
0.26979432 -0.098297149 0.73200005 1.7602076e-38
0.27118859 -0.098297149 0.73200005 1.7325115e-38
0.27258286 -0.098297149 0.73200005 1.7140007e-38
0.27360284 -0.098162852 0.73100001 1.6953465e-38
0.27499524 -0.098162852 0.73100001 1.6858737e-38
0.27563146 -0.097894289 0.72900003 1.6671817e-38
0.27664 -0.097759999 0.72800004 1.6485273e-38
0.27802667 -0.097759999 0.72800004 1.6670017e-38
0.27864572 -0.097491436 0.72600001 1.6762926e-38
0.28002858 -0.097491436 0.72600001 1.6485625e-38
0.28102383 -0.097357146 0.72500002 1.6208323e-38
0.28240478 -0.097357146 0.72500002 1.6299441e-38
0.28378573 -0.097357146 0.72500002 1.6390559e-38
0.28516668 -0.097357146 0.72500002 1.6389842e-38
0.2865476 -0.097357146 0.72500002 1.6297299e-38
0.28930953 -0.097357146 0.72500002 1.6389842e-38
0.29069048 -0.097357146 0.72500002 1.6669275e-38
0.29126573 -0.097088575 0.72300005 1.6948729e-38
0.29264289 -0.097088575 0.72300005 1.7227106e-38
0.29483333 -0.097357146 0.72500002 1.750553e-38
0.29621431 -0.097357146 0.72500002 1.7693555e-38
0.29759523 -0.097357146 0.72500002 1.7881572e-38
0.29897621 -0.097357146 0.72500002 1.8066001e-38
0.2995286 -0.097088575 0.72300005 1.8250377e-38
0.30173811 -0.097357146 0.72500002 1.8703084e-38
0.30311906 -0.097357146 0.72500002 1.9075807e-38
0.30450001 -0.097357146 0.72500002 1.806239e-38
0.30588096 -0.097357146 0.72500002 1.7043909e-38
0.30768573 -0.097491436 0.72600001 1.408935e-38
0.30906856 -0.097491436 0.72600001 1.1145589e-38
0.31398189 -0.098162852 0.73100001 1.1511845e-38
0.31537428 -0.098162852 0.73100001 1.1420361e-38
0.31676668 -0.098162852 0.73100001 1.1329239e-38
0.31815907 -0.098162852 0.73100001 1.1237759e-38
0.31955141 -0.098162852 0.73100001 1.1238477e-38
0.3209438 -0.098162852 0.73100001 1.1238478e-38
0.3223362 -0.098162852 0.73100001 1.1238481e-38
0.2564286 -0.099285722 0.75000006 1.7322676e-38
0.25785717 -0.099285722 0.75000006 1.7323038e-38
0.25928575 -0.099285722 0.75000006 1.7414508e-38
0.25967145 -0.098888576 0.74700004 1.7505978e-38
0.2610943 -0.098888576 0.74700004 1.7598169e-38
0.2618143 -0.09862382 0.74500006 1.7598885e-38
0.26252669 -0.098359056 0.74300003 1.7599254e-38
0.26358667 -0.098226674 0.74200004 1.7415952e-38
0.26428571 -0.097961903 0.74000001 1.723228e-38
0.26533619 -0.097829521 0.73900002 1.7232279e-38
0.26674381 -0.097829521 0.73900002 1.7323753e-38
0.26706287 -0.09743239 0.73600006 1.7415587e-38
0.26846477 -0.09743239 0.73600006 1.7600684e-38
0.26913333 -0.097167619 0.73400003 1.806129e-38
0.26979432 -0.096902862 0.73200005 1.8520104e-38
0.27118859 -0.096902862 0.73200005 1.833607e-38
0.27258286 -0.096902862 0.73200005 1.8242437e-38
0.27360284 -0.096770473 0.73100001 1.8246379e-38
0.27499524 -0.096770473 0.73100001 1.8337495e-38
0.27563146 -0.096505716 0.72900003 1.8428969e-38
0.27702001 -0.096505716 0.72900003 1.8520799e-38
0.27802667 -0.096373342 0.72800004 1.8888494e-38
0.27864572 -0.096108571 0.72600001 1.9348031e-38
0.28002858 -0.096108571 0.72600001 1.9165077e-38
0.28141141 -0.096108571 0.72600001 1.8979968e-38
0.28279427 -0.096108571 0.72600001 1.9070725e-38
0.28417715 -0.096108571 0.72600001 1.9255476e-38
0.28516668 -0.095976189 0.72500002 1.9164721e-38
0.2865476 -0.095976189 0.72500002 1.9073251e-38
0.28792858 -0.095976189 0.72500002 1.9073976e-38
0.28930953 -0.095976189 0.72500002 1.9166875e-38
0.29069048 -0.095976189 0.72500002 1.9259774e-38
0.29207143 -0.095976189 0.72500002 1.9350533e-38
0.29345238 -0.095976189 0.72500002 1.9441293e-38
0.29483333 -0.095976189 0.72500002 1.9533872e-38
0.29621431 -0.095976189 0.72500002 1.9259469e-38
0.29759523 -0.095976189 0.72500002 1.89829e-38
0.29897621 -0.095976189 0.72500002 1.8614497e-38
0.30035713 -0.095976189 0.72500002 1.8245357e-38
0.30173811 -0.095976189 0.72500002 1.8335754e-38
0.30311906 -0.095976189 0.72500002 1.8428301e-38
0.30450001 -0.095976189 0.72500002 1.7418824e-38
0.30588096 -0.095976189 0.72500002 1.6397462e-38
0.30726191 -0.095976189 0.72500002 1.3809876e-38
0.30906856 -0.096108571 0.72600001 1.1238129e-38
0.31398189 -0.096770473 0.73100001 1.1696949e-38
0.31580573 -0.096902862 0.73200005 1.1604392e-38
0.31720003 -0.096902862 0.73200005 1.1604747e-38
0.31859431 -0.096902862 0.73200005 1.1605101e-38
0.31998861 -0.096902862 0.73200005 1.1605463e-38
0.32138288 -0.096902862 0.73200005 1.1513989e-38
0.25854477 -0.098118097 0.75200003 1.7137924e-38
0.25928575 -0.097857147 0.75000006 1.7321592e-38
0.26001906 -0.097596198 0.74800003 1.7321949e-38
0.2610943 -0.097465716 0.74700004 1.7414501e-38
0.2618143 -0.097204767 0.74500006 1.7414859e-38
0.26252669 -0.096943811 0.74300003 1.7415221e-38
0.26394191 -0.096943811 0.74300003 1.713936e-38
0.26500002 -0.096813336 0.74200004 1.695569e-38
0.26533619 -0.096421905 0.73900002 1.7139005e-38
0.26674381 -0.096421905 0.73900002 1.7322675e-38
0.26742575 -0.096160963 0.73700005 1.7414511e-38
0.26913333 -0.095769532 0.73400003 1.7690735e-38
0.26979432 -0.095508575 0.73200005 1.7966611e-38
0.27118859 -0.095508575 0.73200005 1.7783311e-38
0.27221048 -0.095378101 0.73100001 1.7600351e-38
0.27499524 -0.095378101 0.73100001 1.7876586e-38
0.27563146 -0.095117144 0.72900003 1.7968798e-38
0.27664 -0.09498667 0.72800004 1.8061343e-38
0.27802667 -0.09498667 0.72800004 1.8336841e-38
0.27864572 -0.094725713 0.72600001 1.8612349e-38
0.28002858 -0.094725713 0.72600001 1.8520156e-38
0.28141141 -0.094725713 0.72600001 1.8427958e-38
0.28279427 -0.094725713 0.72600001 1.851943e-38
0.28417715 -0.094725713 0.72600001 1.8614861e-38
0.28556001 -0.094725713 0.72600001 1.8522676e-38
0.2865476 -0.094595239 0.72500002 1.8522321e-38
0.28792858 -0.094595239 0.72500002 1.8522684e-38
0.28970855 -0.094725713 0.72600001 1.8614873e-38
0.29069048 -0.094595239 0.72500002 1.8706344e-38
0.29207143 -0.094595239 0.72500002 1.8797818e-38
0.29345238 -0.094595239 0.72500002 1.8797099e-38
0.29483333 -0.094595239 0.72500002 1.8796744e-38
0.29621431 -0.094595239 0.72500002 1.8704914e-38
0.29759523 -0.094595239 0.72500002 1.8613426e-38
0.29897621 -0.094595239 0.72500002 1.8337191e-38
0.30035713 -0.094595239 0.72500002 1.8153166e-38
0.30173811 -0.094595239 0.72500002 1.8153171e-38
0.30311906 -0.094595239 0.72500002 1.8245354e-38
0.30450001 -0.094595239 0.72500002 1.6956059e-38
0.30588096 -0.094595239 0.72500002 1.5751017e-38
0.30768573 -0.094725713 0.72600001 1.3533274e-38
0.31441143 -0.095508575 0.73200005 1.1789501e-38
0.31580573 -0.095508575 0.73200005 1.1789501e-38
0.31720003 -0.095508575 0.73200005 1.1789495e-38
0.31859431 -0.095508575 0.73200005 1.1697297e-38
0.31998861 -0.095508575 0.73200005 1.1697301e-38
0.32138288 -0.095508575 0.73200005 1.1605829e-38
0.25854477 -0.096685715 0.75200003 1.7046799e-38
0.25997716 -0.096685715 0.75200003 1.7230112e-38
0.26001906 -0.096171431 0.74800003 1.7229755e-38
0.2610943 -0.096042864 0.74700004 1.7230478e-38
0.26251715 -0.096042864 0.74700004 1.7230842e-38
0.26323336 -0.095785722 0.74500006 1.7230834e-38
0.26394191 -0.09552858 0.74300003 1.6955319e-38
0.26500002 -0.095400006 0.74200004 1.6771654e-38
0.26569524 -0.095142856 0.74000001 1.7047883e-38
0.26674381 -0.095014282 0.73900002 1.7323031e-38
0.26742575 -0.094757147 0.73700005 1.7414868e-38
0.26846477 -0.09462858 0.73600006 1.7507062e-38
0.26986668 -0.09462858 0.73600006 1.7415587e-38
0.27053145 -0.094371431 0.73400003 1.7415594e-38
0.27118859 -0.094114289 0.73200005 1.7140096e-38
0.27258286 -0.094114289 0.73200005 1.6956419e-38
0.27360284 -0.093985714 0.73100001 1.7231921e-38
0.27499524 -0.093985714 0.73100001 1.7507788e-38
0.27563146 -0.093728572 0.72900003 1.7599982e-38
0.27702001 -0.093728572 0.72900003 1.7691826e-38
0.27802667 -0.093600005 0.72800004 1.778367e-38
0.27864572 -0.093342856 0.72600001 1.7967349e-38
0.28080001 -0.093600005 0.72800004 1.7967359e-38
0.28141141 -0.093342856 0.72600001 1.7968427e-38
0.28279427 -0.093342856 0.72600001 1.7968419e-38
0.28417715 -0.093342856 0.72600001 1.7968421e-38
0.28556001 -0.093342856 0.72600001 1.7968424e-38
0.28694287 -0.093342856 0.72600001 1.7968786e-38
0.28832573 -0.093342856 0.72600001 1.8060984e-38
0.28970855 -0.093342856 0.72600001 1.8152457e-38
0.29109141 -0.093342856 0.72600001 1.8244288e-38
0.29207143 -0.093214288 0.72500002 1.8336122e-38
0.29345238 -0.093214288 0.72500002 1.8244285e-38
0.29483333 -0.093214288 0.72500002 1.8152453e-38
0.29621431 -0.093214288 0.72500002 1.8152815e-38
0.29759523 -0.093214288 0.72500002 1.8245001e-38
0.29897621 -0.093214288 0.72500002 1.8153518e-38
0.30035713 -0.093214288 0.72500002 1.8060972e-38
0.30173811 -0.093214288 0.72500002 1.8063131e-38
0.30311906 -0.093214288 0.72500002 1.8151008e-38
0.30450001 -0.093214288 0.72500002 1.658513e-38
0.30630288 -0.093342856 0.72600001 1.510638e-38
0.30853334 -0.093600005 0.72800004 1.32567e-38
0.31034571 -0.093728572 0.72900003 1.1422513e-38
0.31258953 -0.093985714 0.73100001 1.1607989e-38
0.31441143 -0.094114289 0.73200005 1.1881699e-38
0.31580573 -0.094114289 0.73200005 1.188062e-38
0.31720003 -0.094114289 0.73200005 1.1973528e-38
0.31859431 -0.094114289 0.73200005 1.1882407e-38
0.31998861 -0.094114289 0.73200005 1.1790217e-38
0.32138288 -0.094114289 0.73200005 1.1789862e-38
0.25854477 -0.095253341 0.75200003 1.6771287e-38
0.25997716 -0.095253341 0.75200003 1.7046797e-38
0.26001906 -0.094746664 0.74800003 1.7046443e-38
0.2610943 -0.094620004 0.74700004 1.7046455e-38
0.26251715 -0.094620004 0.74700004 1.7046468e-38
0.26323336 -0.09436667 0.74500006 1.7046447e-38
0.26394191 -0.094113335 0.74300003 1.6954951e-38
0.26500002 -0.093986668 0.74200004 1.6771647e-38
0.26569524 -0.093733333 0.74000001 1.6955327e-38
0.26674381 -0.093606666 0.73900002 1.7139359e-38
0.26742575 -0.093353339 0.73700005 1.7139001e-38
0.26846477 -0.093226671 0.73600006 1.7231914e-38
0.26986668 -0.093226671 0.73600006 1.7231558e-38
0.27053145 -0.092973337 0.73400003 1.7323038e-38
0.27192953 -0.092973337 0.73400003 1.7140087e-38
0.27258286 -0.092720009 0.73200005 1.7048249e-38
0.27360284 -0.092593335 0.73100001 1.7231917e-38
0.27499524 -0.092593335 0.73100001 1.7507407e-38
0.27563146 -0.09234 0.72900003 1.750775e-38
0.27702001 -0.09234 0.72900003 1.7599251e-38
0.27840859 -0.09234 0.72900003 1.7782947e-38
0.28080001 -0.09221334 0.72800004 1.7967369e-38
0.28141141 -0.091959998 0.72600001 1.7876238e-38
0.28279427 -0.091959998 0.72600001 1.7876227e-38
0.28417715 -0.091959998 0.72600001 1.7875864e-38
0.28556001 -0.091959998 0.72600001 1.787622e-38
0.28694287 -0.091959998 0.72600001 1.7876223e-38
0.28832573 -0.091959998 0.72600001 1.7967703e-38
0.28970855 -0.091959998 0.72600001 1.8059535e-38
0.29109141 -0.091959998 0.72600001 1.8060251e-38
0.29207143 -0.091833338 0.72500002 1.8152444e-38
0.29345238 -0.091833338 0.72500002 1.8060609e-38
0.29483333 -0.091833338 0.72500002 1.8060969e-38
0.29662287 -0.091959998 0.72600001 1.806097e-38
0.29759523 -0.091833338 0.72500002 1.8152801e-38
0.29897621 -0.091833338 0.72500002 1.7969126e-38
0.30035713 -0.091833338 0.72500002 1.7877299e-38
0.30173811 -0.091833338 0.72500002 1.7783321e-38
0.30353716 -0.091959998 0.72600001 1.7781156e-38
0.30492002 -0.091959998 0.72600001 1.6123442e-38
0.3071467 -0.09221334 0.72800004 1.4553936e-38
0.30895716 -0.09234 0.72900003 1.3074473e-38
0.31119713 -0.092593335 0.73100001 1.1515434e-38
0.31258953 -0.092593335 0.73100001 1.1698757e-38
0.31441143 -0.092720009 0.73200005 1.1882062e-38
0.31666857 -0.092973337 0.73400003 1.1882415e-38
0.31806666 -0.092973337 0.73400003 1.1974966e-38
0.31946477 -0.092973337 0.73400003 1.1790934e-38
0.32086286 -0.092973337 0.73400003 1.1699103e-38
0.25888857 -0.093945719 0.75300002 1.6587611e-38
0.25997716 -0.093820952 0.75200003 1.6863116e-38
0.26071432 -0.093571432 0.75000006 1.6863115e-38
0.26144382 -0.093321912 0.74800003 1.6954607e-38
0.26251715 -0.093197145 0.74700004 1.6954623e-38
0.26323336 -0.092947625 0.74500006 1.6953897e-38
0.26394191 -0.092698105 0.74300003 1.6861693e-38
0.26500002 -0.092573337 0.74200004 1.6862419e-38
0.26569524 -0.09232381 0.74000001 1.6863143e-38
0.26710474 -0.09232381 0.74000001 1.6954977e-38
0.26815143 -0.09219905 0.73900002 1.6955334e-38
0.26882955 -0.09194953 0.73700005 1.7047529e-38
0.27023336 -0.09194953 0.73700005 1.7139723e-38
0.27126861 -0.09182477 0.73600006 1.723156e-38
0.27192953 -0.091575243 0.73400003 1.723192e-38
0.27258286 -0.091325723 0.73200005 1.723192e-38
0.27360284 -0.091200955 0.73100001 1.7323755e-38
0.27499524 -0.091200955 0.73100001 1.7507418e-38
0.27563146 -0.090951428 0.72900003 1.7508127e-38
0.27702001 -0.090951428 0.72900003 1.7599259e-38
0.27802667 -0.090826668 0.72800004 1.787478e-38
0.27941337 -0.090826668 0.72800004 1.8150656e-38
0.28080001 -0.090826668 0.72800004 1.7967712e-38
0.28218669 -0.090826668 0.72800004 1.7784036e-38
0.28279427 -0.090577148 0.72600001 1.7784387e-38
0.28417715 -0.090577148 0.72600001 1.778438e-38
0.28556001 -0.090577148 0.72600001 1.7784373e-38
0.28694287 -0.090577148 0.72600001 1.7875857e-38
0.28832573 -0.090577148 0.72600001 1.7875504e-38
0.28970855 -0.090577148 0.72600001 1.7967337e-38
0.29109141 -0.090577148 0.72600001 1.7968051e-38
0.29247427 -0.090577148 0.72600001 1.7968412e-38
0.29385716 -0.090577148 0.72600001 1.796913e-38
0.29524001 -0.090577148 0.72600001 1.7969132e-38
0.29662287 -0.090577148 0.72600001 1.7969492e-38
0.29800573 -0.090577148 0.72600001 1.8061681e-38
0.29938856 -0.090577148 0.72600001 1.7878363e-38
0.30077142 -0.090577148 0.72600001 1.7693265e-38
0.30215427 -0.090577148 0.72600001 1.7503863e-38
0.30353716 -0.090577148 0.72600001 1.7414155e-38
0.30492002 -0.090577148 0.72600001 1.5753557e-38
0.3071467 -0.090826668 0.72800004 1.4088646e-38
0.30895716 -0.090951428 0.72900003 1.28926e-38
0.31119713 -0.091200955 0.73100001 1.1698387e-38
0.31258953 -0.091200955 0.73100001 1.1790231e-38
0.31441143 -0.091325723 0.73200005 1.1882421e-38
0.31666857 -0.091575243 0.73400003 1.1974611e-38
0.31806666 -0.091575243 0.73400003 1.2066445e-38
0.31946477 -0.091575243 0.73400003 1.1790937e-38
0.25997716 -0.09238857 0.75200003 1.6770554e-38
0.26071432 -0.092142865 0.75000006 1.6862023e-38
0.26144382 -0.091897145 0.74800003 1.6862042e-38
0.26251715 -0.091774292 0.74700004 1.6861344e-38
0.26323336 -0.09152858 0.74500006 1.6860986e-38
0.26394191 -0.091282859 0.74300003 1.6953183e-38
0.26500002 -0.091159999 0.74200004 1.6953907e-38
0.26569524 -0.090914287 0.74000001 1.6953914e-38
0.26710474 -0.090914287 0.74000001 1.6862074e-38
0.26815143 -0.090791427 0.73900002 1.6954623e-38
0.26882955 -0.090545721 0.73700005 1.6955337e-38
0.27023336 -0.090545721 0.73700005 1.7047529e-38
0.27126861 -0.090422861 0.73600006 1.7139723e-38
0.27267048 -0.090422861 0.73600006 1.7140082e-38
0.27258286 -0.089931436 0.73200005 1.723192e-38
0.27360284 -0.089808576 0.73100001 1.7231923e-38
0.27499524 -0.089808576 0.73100001 1.7323758e-38
0.2763876 -0.089808576 0.73100001 1.7415594e-38
0.27778 -0.089808576 0.73100001 1.7507791e-38
0.27840859 -0.089562856 0.72900003 1.7691466e-38
0.27941337 -0.089440003 0.72800004 1.7875141e-38
0.28118575 -0.089562856 0.72900003 1.7784027e-38
0.28218669 -0.089440003 0.72800004 1.7691114e-38
0.28357333 -0.089440003 0.72800004 1.7691832e-38
0.28496 -0.089440003 0.72800004 1.7691821e-38
0.28556001 -0.089194283 0.72600001 1.7691452e-38
0.28694287 -0.089194283 0.72600001 1.7691462e-38
0.28832573 -0.089194283 0.72600001 1.769183e-38
0.28970855 -0.089194283 0.72600001 1.7783662e-38
0.29109141 -0.089194283 0.72600001 1.7784376e-38
0.29247427 -0.089194283 0.72600001 1.7784738e-38
0.29385716 -0.089194283 0.72600001 1.7784025e-38
0.29524001 -0.089194283 0.72600001 1.7783307e-38
0.29662287 -0.089194283 0.72600001 1.7784743e-38
0.29800573 -0.089194283 0.72600001 1.7878724e-38
0.29938856 -0.089194283 0.72600001 1.769397e-38
0.30077142 -0.089194283 0.72600001 1.750923e-38
0.30215427 -0.089194283 0.72600001 1.7229068e-38
0.30437335 -0.089440003 0.72800004 1.6863839e-38
0.30618 -0.089562856 0.72900003 1.4740106e-38
0.30756858 -0.089562856 0.72900003 1.2705362e-38
0.30980477 -0.089808576 0.73100001 1.2249399e-38
0.31119713 -0.089808576 0.73100001 1.1882059e-38
0.31301716 -0.089931436 0.73200005 1.1790587e-38
0.31666857 -0.090177149 0.73400003 1.1882778e-38
0.25848001 -0.091440007 0.75600004 1.7228303e-38
0.25992 -0.091440007 0.75600004 1.6953511e-38
0.25997716 -0.090956196 0.75200003 1.6769483e-38
0.26140952 -0.090956196 0.75200003 1.6769483e-38
0.26144382 -0.090472385 0.74800003 1.6860971e-38
0.26251715 -0.090351433 0.74700004 1.6860984e-38
0.26323336 -0.090109527 0.74500006 1.6860984e-38
0.2646524 -0.090109527 0.74500006 1.6952821e-38
0.26535714 -0.089867629 0.74300003 1.7137213e-38
0.26641333 -0.089746676 0.74200004 1.6955341e-38
0.26710474 -0.089504763 0.74000001 1.686171e-38
0.26815143 -0.089383811 0.73900002 1.6862065e-38
0.26882955 -0.089141913 0.73700005 1.6954258e-38
0.27023336 -0.089141913 0.73700005 1.6954976e-38
0.27126861 -0.08902096 0.73600006 1.7047169e-38
0.27267048 -0.08902096 0.73600006 1.714008e-38
0.27332765 -0.088779047 0.73400003 1.7231917e-38
0.27397716 -0.088537149 0.73200005 1.7231919e-38
0.27537143 -0.088537149 0.73200005 1.7231923e-38
0.27676573 -0.088537149 0.73200005 1.7323762e-38
0.27778 -0.088416189 0.73100001 1.7415601e-38
0.27917239 -0.088416189 0.73100001 1.7508157e-38
0.27979717 -0.088174291 0.72900003 1.7599635e-38
0.28118575 -0.088174291 0.72900003 1.7600354e-38
0.2825743 -0.088174291 0.72900003 1.7691832e-38
0.28357333 -0.088053338 0.72800004 1.7599998e-38
0.28496 -0.088053338 0.72800004 1.7599998e-38
0.2863467 -0.088053338 0.72800004 1.7506729e-38
0.28694287 -0.087811433 0.72600001 1.7508161e-38
0.28832573 -0.087811433 0.72600001 1.7508517e-38
0.28970855 -0.087811433 0.72600001 1.7600349e-38
0.29109141 -0.087811433 0.72600001 1.7600705e-38
0.29247427 -0.087811433 0.72600001 1.7691823e-38
0.29385716 -0.087811433 0.72600001 1.7691463e-38
0.29524001 -0.087811433 0.72600001 1.7691466e-38
0.29744002 -0.088053338 0.72800004 1.7692186e-38
0.29882666 -0.088053338 0.72800004 1.7691826e-38
0.30021337 -0.088053338 0.72800004 1.7507795e-38
0.30160001 -0.088053338 0.72800004 1.7414527e-38
0.30340287 -0.088174291 0.72900003 1.6862441e-38
0.30479142 -0.088174291 0.72900003 1.6399991e-38
0.30618 -0.088174291 0.72900003 1.3818868e-38
0.30841237 -0.088416189 0.73100001 1.13289e-38
0.30980477 -0.088416189 0.73100001 1.1698389e-38
0.31162286 -0.088537149 0.73200005 1.2066091e-38
0.31301716 -0.088537149 0.73200005 1.1883138e-38
0.31753144 -0.08902096 0.73600006 1.1883137e-38
0.31893337 -0.08902096 0.73600006 1.2159005e-38
0.25848001 -0.090000004 0.75600004 1.686024e-38
0.2595762 -0.089880958 0.75500005 1.6768403e-38
0.25997716 -0.089523815 0.75200003 1.6676934e-38
0.26140952 -0.089523815 0.75200003 1.6676944e-38
0.26251715 -0.08892858 0.74700004 1.6769147e-38
0.26323336 -0.088690482 0.74500006 1.6769145e-38
0.2646524 -0.088690482 0.74500006 1.6860981e-38
0.26535714 -0.088452376 0.74300003 1.6953537e-38
0.26641333 -0.088333338 0.74200004 1.6861347e-38
0.26710474 -0.08809524 0.74000001 1.676951e-38
0.26815143 -0.087976187 0.73900002 1.6770226e-38
0.26955906 -0.087976187 0.73900002 1.6770227e-38
0.27023336 -0.087738104 0.73700005 1.6862782e-38
0.27163717 -0.087738104 0.73700005 1.6863139e-38
0.27267048 -0.087619051 0.73600006 1.6955332e-38
0.27332765 -0.087380953 0.73400003 1.7047526e-38
0.27397716 -0.087142862 0.73200005 1.7047169e-38
0.27537143 -0.087142862 0.73200005 1.7138654e-38
0.27676573 -0.087142862 0.73200005 1.7230856e-38
0.27816001 -0.087142862 0.73200005 1.7323411e-38
0.27955431 -0.087142862 0.73200005 1.7415608e-38
0.28056479 -0.08702381 0.73100001 1.7507799e-38
0.28195712 -0.08702381 0.73100001 1.7599633e-38
0.2825743 -0.086785719 0.72900003 1.769183e-38
0.28396288 -0.086785719 0.72900003 1.7599999e-38
0.28496 -0.086666673 0.72800004 1.7508175e-38
0.2863467 -0.086666673 0.72800004 1.7508187e-38
0.28773335 -0.086666673 0.72800004 1.7508531e-38
0.28832573 -0.086428568 0.72600001 1.7508158e-38
0.28970855 -0.086428568 0.72600001 1.7507438e-38
0.29109141 -0.086428568 0.72600001 1.7507436e-38
0.29247427 -0.086428568 0.72600001 1.7507431e-38
0.29466668 -0.086666673 0.72800004 1.7507426e-38
0.29605335 -0.086666673 0.72800004 1.7416313e-38
0.29784858 -0.086785719 0.72900003 1.7415958e-38
0.29923713 -0.086785719 0.72900003 1.7415962e-38
0.30062571 -0.086785719 0.72900003 1.7323414e-38
0.30201429 -0.086785719 0.72900003 1.7230859e-38
0.30423522 -0.08702381 0.73100001 1.6308198e-38
0.30562761 -0.08702381 0.73100001 1.5293295e-38
0.30702001 -0.08702381 0.73100001 1.3355732e-38
0.30841237 -0.08702381 0.73100001 1.1421807e-38
0.30980477 -0.08702381 0.73100001 1.1699468e-38
0.31162286 -0.087142862 0.73200005 1.2067884e-38
0.31796288 -0.087738104 0.73700005 1.2067886e-38
0.31936669 -0.087738104 0.73700005 1.2251564e-38
0.25848001 -0.088560008 0.75600004 1.6584376e-38
0.25992 -0.088560008 0.75600004 1.6585452e-38
0.25997716 -0.088091433 0.75200003 1.658474e-38
0.26140952 -0.088091433 0.75200003 1.6584747e-38
0.2621429 -0.08785715 0.75000006 1.6676944e-38
0.26286858 -0.087622859 0.74800003 1.6678023e-38
0.26394001 -0.087505721 0.74700004 1.6769498e-38
0.2646524 -0.087271437 0.74500006 1.6769497e-38
0.26535714 -0.087037146 0.74300003 1.6769501e-38
0.26677239 -0.087037146 0.74300003 1.6678027e-38
0.26782668 -0.086920008 0.74200004 1.667767e-38
0.26851428 -0.086685717 0.74000001 1.6678389e-38
0.26955906 -0.086568572 0.73900002 1.6678387e-38
0.27096668 -0.086568572 0.73900002 1.6679105e-38
0.27163717 -0.086334296 0.73700005 1.677094e-38
0.27304098 -0.086334296 0.73700005 1.677094e-38
0.27407241 -0.08621715 0.73600006 1.6863136e-38
0.27547431 -0.08621715 0.73600006 1.695533e-38
0.27612382 -0.085982859 0.73400003 1.7138648e-38
0.27752191 -0.085982859 0.73400003 1.7138655e-38
0.27891999 -0.085982859 0.73400003 1.7230492e-38
0.27955431 -0.085748576 0.73200005 1.7322688e-38
0.28056479 -0.08563143 0.73100001 1.7507075e-38
0.28195712 -0.08563143 0.73100001 1.7599626e-38
0.28334951 -0.08563143 0.73100001 1.77833e-38
0.28396288 -0.085397147 0.72900003 1.7599632e-38
0.28535146 -0.085397147 0.72900003 1.7507805e-38
0.2863467 -0.085280009 0.72800004 1.7508172e-38
0.28773335 -0.085280009 0.72800004 1.7507803e-38
0.28912002 -0.085280009 0.72800004 1.7415959e-38
0.29050669 -0.085280009 0.72800004 1.7415242e-38
0.29189333 -0.085280009 0.72800004 1.7415241e-38
0.29328004 -0.085280009 0.72800004 1.7415238e-38
0.29466668 -0.085280009 0.72800004 1.7323401e-38
0.29646 -0.085397147 0.72900003 1.7231926e-38
0.29784858 -0.085397147 0.72900003 1.7232286e-38
0.29923713 -0.085397147 0.72900003 1.7231931e-38
0.30145049 -0.08563143 0.73100001 1.7139382e-38
0.30284286 -0.08563143 0.73100001 1.7135058e-38
0.30423522 -0.08563143 0.73100001 1.5662083e-38
0.30562761 -0.08563143 0.73100001 1.4280575e-38
0.30702001 -0.08563143 0.73100001 1.2892609e-38
0.30841237 -0.08563143 0.73100001 1.1607622e-38
0.30980477 -0.08563143 0.73100001 1.1792362e-38
0.31162286 -0.085748576 0.73200005 1.2067872e-38
0.31301716 -0.085748576 0.73200005 1.2068593e-38
0.31527051 -0.085982859 0.73400003 1.2160432e-38
0.25992 -0.087120004 0.75600004 1.6400709e-38
0.25997716 -0.086659051 0.75200003 1.640107e-38
0.26140952 -0.086659051 0.75200003 1.6401073e-38
0.2621429 -0.086428575 0.75000006 1.6401433e-38
0.26286858 -0.086198099 0.74800003 1.649363e-38
0.26394001 -0.086082861 0.74700004 1.6586539e-38
0.2646524 -0.085852385 0.74500006 1.658582e-38
0.26607147 -0.085852385 0.74500006 1.66773e-38
0.26677239 -0.085621901 0.74300003 1.6585469e-38
0.26782668 -0.08550667 0.74200004 1.6585472e-38
0.26851428 -0.085276194 0.74000001 1.6586193e-38
0.26955906 -0.085160956 0.73900002 1.6586908e-38
0.27096668 -0.085160956 0.73900002 1.6586905e-38
0.27163717 -0.084930487 0.73700005 1.6678742e-38
0.27304098 -0.084930487 0.73700005 1.677058e-38
0.27407241 -0.084815241 0.73600006 1.6862416e-38
0.27547431 -0.084815241 0.73600006 1.6954253e-38
0.27687621 -0.084815241 0.73600006 1.704645e-38
0.27827811 -0.084815241 0.73600006 1.7046454e-38
0.27891999 -0.084584765 0.73400003 1.7138648e-38
0.28031811 -0.084584765 0.73400003 1.7230844e-38
0.28094861 -0.084354289 0.73200005 1.7323037e-38
0.28234288 -0.084354289 0.73200005 1.7324113e-38
0.28334951 -0.084239051 0.73100001 1.7324116e-38
0.28396288 -0.084008574 0.72900003 1.7324118e-38
0.28535146 -0.084008574 0.72900003 1.7323764e-38
0.28674003 -0.084008574 0.72900003 1.7323051e-38
0.28812858 -0.084008574 0.72900003 1.7322689e-38
0.28912002 -0.083893336 0.72800004 1.7230851e-38
0.29050669 -0.083893336 0.72800004 1.7231209e-38
0.29189333 -0.083893336 0.72800004 1.7230852e-38
0.29368284 -0.084008574 0.72900003 1.7230852e-38
0.29507142 -0.084008574 0.72900003 1.7139017e-38
0.29646 -0.084008574 0.72900003 1.7046821e-38
0.2986657 -0.084239051 0.73100001 1.6863507e-38
0.3000581 -0.084239051 0.73100001 1.6772394e-38
0.30145049 -0.084239051 0.73100001 1.6769887e-38
0.30284286 -0.084239051 0.73100001 1.676375e-38
0.30423522 -0.084239051 0.73100001 1.4832299e-38
0.30562761 -0.084239051 0.73100001 1.2992708e-38
0.30702001 -0.084239051 0.73100001 1.2433433e-38
0.30841237 -0.084239051 0.73100001 1.188312e-38
0.31022859 -0.084354289 0.73200005 1.1976017e-38
0.31162286 -0.084354289 0.73200005 1.2068219e-38
0.31301716 -0.084354289 0.73200005 1.2067869e-38
0.31527051 -0.084584765 0.73400003 1.2159348e-38
0.26032287 -0.085340001 0.75300002 1.6217038e-38
0.26140952 -0.08522667 0.75200003 1.6217042e-38
0.26284191 -0.08522667 0.75200003 1.6217401e-38
0.26357144 -0.085000008 0.75000006 1.6309597e-38
0.26429331 -0.084773332 0.74800003 1.6401791e-38
0.26536286 -0.084660001 0.74700004 1.6493985e-38
0.26607147 -0.08443334 0.74500006 1.6585106e-38
0.26749051 -0.08443334 0.74500006 1.6493275e-38
0.26818764 -0.084206671 0.74300003 1.6493633e-38
0.26960286 -0.084206671 0.74300003 1.6493993e-38
0.27065334 -0.08409334 0.74200004 1.6494352e-38
0.27133334 -0.083866663 0.74000001 1.6494711e-38
0.2723743 -0.083753332 0.73900002 1.6586546e-38
0.27304098 -0.083526671 0.73700005 1.6678741e-38
0.27444479 -0.083526671 0.73700005 1.6862056e-38
0.27547431 -0.08341334 0.73600006 1.6862057e-38
0.27687621 -0.08341334 0.73600006 1.6954253e-38
0.27827811 -0.08341334 0.73600006 1.7046448e-38
0.27891999 -0.083186664 0.73400003 1.7138285e-38
0.28031811 -0.083186664 0.73400003 1.7139003e-38
0.2817162 -0.083186664 0.73400003 1.7231198e-38
0.28234288 -0.08296001 0.73200005 1.7048965e-38
0.28373715 -0.08296001 0.73200005 1.6957132e-38
0.28474191 -0.082846664 0.73100001 1.7048972e-38
0.2861343 -0.082846664 0.73100001 1.7139373e-38
0.28752667 -0.082846664 0.73100001 1.7139373e-38
0.28891903 -0.082846664 0.73100001 1.7230488e-38
0.28951716 -0.082620002 0.72900003 1.713865e-38
0.29090574 -0.082620002 0.72900003 1.7046815e-38
0.29309618 -0.082846664 0.73100001 1.7047176e-38
0.29448858 -0.082846664 0.73100001 1.7047174e-38
0.29588094 -0.082846664 0.73100001 1.6955696e-38
0.29727334 -0.082846664 0.73100001 1.6863499e-38
0.2986657 -0.082846664 0.73100001 1.658799e-38
0.3000581 -0.082846664 0.73100001 1.6403254e-38
0.30186287 -0.08296001 0.73200005 1.6400755e-38
0.30325714 -0.08296001 0.73200005 1.6393899e-38
0.30465147 -0.08296001 0.73200005 1.4000395e-38
0.30604574 -0.08296001 0.73200005 1.1701628e-38
0.30744001 -0.08296001 0.73200005 1.188278e-38
0.30883431 -0.08296001 0.73200005 1.2158993e-38
0.31022859 -0.08296001 0.73200005 1.2159699e-38
0.31247431 -0.083186664 0.73400003 1.2160064e-38
0.3138724 -0.083186664 0.73400003 1.2159353e-38
0.31527051 -0.083186664 0.73400003 1.2159e-38
0.25992 -0.084240004 0.75600004 1.594045e-38
0.26032287 -0.083905719 0.75300002 1.6032289e-38
0.26175714 -0.083905719 0.75300002 1.6032654e-38
0.26284191 -0.083794288 0.75200003 1.6033011e-38
0.26357144 -0.083571434 0.75000006 1.6125204e-38
0.26500002 -0.083571434 0.75000006 1.6217758e-38
0.2657181 -0.08334858 0.74800003 1.6217761e-38
0.26607147 -0.083014295 0.74500006 1.6309599e-38
0.26749051 -0.083014295 0.74500006 1.6125933e-38
0.26890954 -0.083014295 0.74500006 1.5942617e-38
0.26960286 -0.082791425 0.74300003 1.6125928e-38
0.27065334 -0.082680002 0.74200004 1.6309602e-38
0.27206668 -0.082680002 0.74200004 1.6309965e-38
0.27274287 -0.08245714 0.74000001 1.6402156e-38
0.27304098 -0.082122862 0.73700005 1.6494349e-38
0.27444479 -0.082122862 0.73700005 1.6586188e-38
0.2758486 -0.082122862 0.73700005 1.6678386e-38
0.27725241 -0.082122862 0.73700005 1.6769503e-38
0.27827811 -0.082011431 0.73600006 1.6862414e-38
0.27968001 -0.082011431 0.73600006 1.6954609e-38
0.28108191 -0.082011431 0.73600006 1.7046445e-38
0.2817162 -0.081788577 0.73400003 1.713972e-38
0.28311431 -0.081788577 0.73400003 1.7047889e-38
0.28373715 -0.081565715 0.73200005 1.6956058e-38
0.28513145 -0.081565715 0.73200005 1.7047539e-38
0.28652573 -0.081565715 0.73200005 1.7047176e-38
0.28752667 -0.081454284 0.73100001 1.7046814e-38
0.28891903 -0.081454284 0.73100001 1.7138645e-38
0.29031143 -0.081454284 0.73100001 1.7046807e-38
0.29170382 -0.081454284 0.73100001 1.6954973e-38
0.29309618 -0.081454284 0.73100001 1.6862782e-38
0.29448858 -0.081454284 0.73100001 1.6862779e-38
0.29588094 -0.081454284 0.73100001 1.6679465e-38
0.29768002 -0.081565715 0.73200005 1.6587983e-38
0.29907429 -0.081565715 0.73200005 1.6311037e-38
0.30046859 -0.081565715 0.73200005 1.6126309e-38
0.30186287 -0.081565715 0.73200005 1.5295146e-38
0.30325714 -0.081565715 0.73200005 1.4554678e-38
0.30465147 -0.081565715 0.73200005 1.3263197e-38
0.30604574 -0.081565715 0.73200005 1.1972471e-38
0.30744001 -0.081565715 0.73200005 1.2066452e-38
0.30883431 -0.081565715 0.73200005 1.2160434e-38
0.31022859 -0.081565715 0.73200005 1.1976399e-38
0.31247431 -0.081788577 0.73400003 1.1792732e-38
0.3138724 -0.081788577 0.73400003 1.1976408e-38
0.31527051 -0.081788577 0.73400003 1.206825e-38
0.25992 -0.082800001 0.75600004 1.575568e-38
0.26101431 -0.082690477 0.75500005 1.5940088e-38
0.26175714 -0.08247143 0.75300002 1.5940108e-38
0.26319143 -0.08247143 0.75300002 1.5940462e-38
0.2642743 -0.082361907 0.75200003 1.5941177e-38
0.26500002 -0.082142867 0.75000006 1.6033371e-38
0.2657181 -0.081923813 0.74800003 1.603409e-38
0.26678571 -0.081814289 0.74700004 1.6033733e-38
0.26820859 -0.081814289 0.74700004 1.5759304e-38
0.26890954 -0.081595249 0.74500006 1.5483074e-38
0.26960286 -0.081376195 0.74300003 1.5758218e-38
0.27101809 -0.081376195 0.74300003 1.6125567e-38
0.27206668 -0.081266664 0.74200004 1.6217769e-38
0.27348003 -0.081266664 0.74200004 1.6309962e-38
0.2737819 -0.080938093 0.73900002 1.6311036e-38
0.27518952 -0.080938093 0.73900002 1.6402873e-38
0.2758486 -0.080719054 0.73700005 1.6494711e-38
0.27725241 -0.080719054 0.73700005 1.6678023e-38
0.27865621 -0.080719054 0.73700005 1.6678741e-38
0.27968001 -0.08060953 0.73600006 1.6770579e-38
0.28108191 -0.08060953 0.73600006 1.6862417e-38
0.28248385 -0.08060953 0.73600006 1.7046094e-38
0.28311431 -0.080390476 0.73400003 1.7046458e-38
0.28451237 -0.080390476 0.73400003 1.7046824e-38
0.28591049 -0.080390476 0.73400003 1.7047191e-38
0.28730857 -0.080390476 0.73400003 1.7046824e-38
0.28792 -0.080171436 0.73200005 1.7046815e-38
0.2893143 -0.080171436 0.73200005 1.7046454e-38
0.29070857 -0.080171436 0.73200005 1.6954616e-38
0.29210287 -0.080171436 0.73200005 1.6862421e-38
0.29349717 -0.080171436 0.73200005 1.6770586e-38
0.29489145 -0.080171436 0.73200005 1.6769868e-38
0.29628575 -0.080171436 0.73200005 1.6492568e-38
0.29768002 -0.080171436 0.73200005 1.6308892e-38
0.29907429 -0.080171436 0.73200005 1.6125216e-38
0.30046859 -0.080171436 0.73200005 1.5940825e-38
0.30186287 -0.080171436 0.73200005 1.4281684e-38
0.30325714 -0.080171436 0.73200005 1.271508e-38
0.30548382 -0.080390476 0.73400003 1.2526008e-38
0.3068819 -0.080390476 0.73400003 1.2342329e-38
0.30827999 -0.080390476 0.73400003 1.2250486e-38
0.30883431 -0.080171436 0.73200005 1.2160079e-38
0.31022859 -0.080171436 0.73200005 1.179309e-38
0.31162286 -0.080171436 0.73200005 1.1517586e-38
0.26136002 -0.081359997 0.75600004 1.5940081e-38
0.26245239 -0.081252381 0.75500005 1.5848279e-38
0.26319143 -0.081037149 0.75300002 1.5756079e-38
0.2642743 -0.080929525 0.75200003 1.5756074e-38
0.26570666 -0.080929525 0.75200003 1.5848267e-38
0.26642859 -0.080714293 0.75000006 1.5848984e-38
0.26714286 -0.080499046 0.74800003 1.5941894e-38
0.26820859 -0.080391429 0.74700004 1.5758223e-38
0.26890954 -0.080176197 0.74500006 1.5574903e-38
0.27032861 -0.080176197 0.74500006 1.5758208e-38
0.27101809 -0.07996095 0.74300003 1.603301e-38
0.27243334 -0.07996095 0.74300003 1.603374e-38
0.27348003 -0.079853341 0.74200004 1.612629e-38
0.2741524 -0.079638094 0.74000001 1.6127006e-38
0.27518952 -0.079530478 0.73900002 1.6127365e-38
0.2758486 -0.079315245 0.73700005 1.6310318e-38
0.27725241 -0.079315245 0.73700005 1.6493632e-38
0.27865621 -0.079315245 0.73700005 1.6494351e-38
0.28006002 -0.079315245 0.73700005 1.6586908e-38
0.28146383 -0.079315245 0.73700005 1.6678749e-38
0.28248385 -0.079207622 0.73600006 1.6862426e-38
0.28388572 -0.079207622 0.73600006 1.6770597e-38
0.28528765 -0.079207622 0.73600006 1.6770608e-38
0.28591049 -0.078992382 0.73400003 1.6770262e-38
0.28730857 -0.078992382 0.73400003 1.6770248e-38
0.28870666 -0.078992382 0.73400003 1.6770236e-38
0.29010478 -0.078992382 0.73400003 1.6770233e-38
0.29070857 -0.078777142 0.73200005 1.6677318e-38
0.29210287 -0.078777142 0.73200005 1.6584404e-38
0.29349717 -0.078777142 0.73200005 1.6492926e-38
0.29489145 -0.078777142 0.73200005 1.6493286e-38
0.29628575 -0.078777142 0.73200005 1.6216706e-38
0.29768002 -0.078777142 0.73200005 1.6033031e-38
0.29989144 -0.078992382 0.73400003 1.5664608e-38
0.30128953 -0.078992382 0.73400003 1.5388358e-38
0.30268764 -0.078992382 0.73400003 1.3817442e-38
0.30408573 -0.078992382 0.73400003 1.234485e-38
0.3063162 -0.079207622 0.73600006 1.2251585e-38
0.3068819 -0.078992382 0.73400003 1.2159022e-38
0.30912003 -0.079207622 0.73600006 1.2159372e-38
0.30967811 -0.078992382 0.73400003 1.2160083e-38
0.31107619 -0.078992382 0.73400003 1.1976763e-38
0.26136002 -0.079920009 0.75600004 1.594009e-38
0.26280001 -0.079920009 0.75600004 1.5756437e-38
0.2638905 -0.079814292 0.75500005 1.55724e-38
0.2642743 -0.079497144 0.75200003 1.5572034e-38
0.26570666 -0.079497144 0.75200003 1.5664589e-38
0.26642859 -0.079285719 0.75000006 1.5756427e-38
0.26714286 -0.079074286 0.74800003 1.5849697e-38
0.26856762 -0.079074286 0.74800003 1.5757863e-38
0.26963145 -0.078968577 0.74700004 1.5757858e-38
0.27032861 -0.078757152 0.74500006 1.5850048e-38
0.27101809 -0.078545719 0.74300003 1.5941534e-38
0.27243334 -0.078545719 0.74300003 1.5941544e-38
0.27384859 -0.078545719 0.74300003 1.6033738e-38
0.2741524 -0.078228571 0.74000001 1.5942979e-38
0.27518952 -0.078122854 0.73900002 1.5850785e-38
0.27659714 -0.078122854 0.73900002 1.6034456e-38
0.27800477 -0.078122854 0.73900002 1.6309246e-38
0.27865621 -0.077911437 0.73700005 1.6400367e-38
0.28006002 -0.077911437 0.73700005 1.6493996e-38
0.28146383 -0.077911437 0.73700005 1.6586549e-38
0.28248385 -0.07780572 0.73600006 1.6678389e-38
0.28388572 -0.07780572 0.73600006 1.6586918e-38
0.28528765 -0.07780572 0.73600006 1.6586202e-38
0.28668955 -0.07780572 0.73600006 1.6585487e-38
0.28809145 -0.07780572 0.73600006 1.658656e-38
0.28870666 -0.077594288 0.73400003 1.6495079e-38
0.29010478 -0.077594288 0.73400003 1.6494003e-38
0.29150286 -0.077594288 0.73400003 1.6398939e-38
0.29290098 -0.077594288 0.73400003 1.6308536e-38
0.29429907 -0.077594288 0.73400003 1.6216697e-38
0.29569715 -0.077594288 0.73400003 1.6216336e-38
0.29709524 -0.077594288 0.73400003 1.5940828e-38
0.29849333 -0.077594288 0.73400003 1.575752e-38
0.29989144 -0.077594288 0.73400003 1.5293683e-38
0.30128953 -0.077594288 0.73400003 1.492667e-38
0.30351239 -0.07780572 0.73600006 1.3445078e-38
0.30491433 -0.07780572 0.73600006 1.1976429e-38
0.30673242 -0.077911437 0.73700005 1.1977149e-38
0.30813622 -0.077911437 0.73700005 1.2068619e-38
0.30954003 -0.077911437 0.73700005 1.2068253e-38
0.31052193 -0.07780572 0.73600006 1.216008e-38
0.2620514 -0.078687623 0.75800002 1.6124845e-38
0.26349524 -0.078687623 0.75800002 1.5941177e-38
0.26424003 -0.078480005 0.75600004 1.5849333e-38
0.2646257 -0.078168571 0.75300002 1.5848966e-38
0.26570666 -0.078064762 0.75200003 1.5848971e-38
0.26713905 -0.078064762 0.75200003 1.5849336e-38
0.26785716 -0.077857152 0.75000006 1.5849696e-38
0.26856762 -0.077649526 0.74800003 1.5666026e-38
0.26963145 -0.077545717 0.74700004 1.5573472e-38
0.27032861 -0.077338107 0.74500006 1.5756783e-38
0.27174765 -0.077338107 0.74500006 1.5940459e-38
0.27316669 -0.077338107 0.74500006 1.5940825e-38
0.27384859 -0.077130474 0.74300003 1.5941185e-38
0.27489337 -0.077026673 0.74200004 1.5941188e-38
0.2755619 -0.076819047 0.74000001 1.5941188e-38
0.27659714 -0.076715238 0.73900002 1.6032665e-38
0.27800477 -0.076715238 0.73900002 1.6124503e-38
0.27941236 -0.076715238 0.73900002 1.6124506e-38
0.28006002 -0.076507628 0.73700005 1.6217772e-38
0.28146383 -0.076507628 0.73700005 1.6309962e-38
0.28286764 -0.076507628 0.73700005 1.6493995e-38
0.28427145 -0.076507628 0.73700005 1.649328e-38
0.28528765 -0.076403812 0.73600006 1.6492914e-38
0.28668955 -0.076403812 0.73600006 1.6493984e-38
0.28848287 -0.076507628 0.73700005 1.6494707e-38
0.28949335 -0.076403812 0.73600006 1.6402519e-38
0.29089525 -0.076403812 0.73600006 1.6401805e-38
0.29150286 -0.076196194 0.73400003 1.6308896e-38
0.29290098 -0.076196194 0.73400003 1.6216339e-38
0.29429907 -0.076196194 0.73400003 1.6216335e-38
0.29650289 -0.076403812 0.73600006 1.6216329e-38
0.29790479 -0.076403812 0.73600006 1.6124488e-38
0.29930669 -0.076403812 0.73600006 1.6033382e-38
0.30111718 -0.076507628 0.73700005 1.5017824e-38
0.30252099 -0.076507628 0.73700005 1.4097643e-38
0.3039248 -0.076507628 0.73700005 1.3077018e-38
0.30615714 -0.076715238 0.73900002 1.2157946e-38
0.3075648 -0.076715238 0.73900002 1.2068621e-38
0.30897239 -0.076715238 0.73900002 1.2068616e-38
0.31038001 -0.076715238 0.73900002 1.2160088e-38
0.31178764 -0.076715238 0.73900002 1.2251914e-38
0.26274285 -0.077447623 0.76000005 1.6308519e-38
0.26349524 -0.077243812 0.75800002 1.6216325e-38
0.26424003 -0.077040002 0.75600004 1.6124841e-38
0.26532859 -0.0769381 0.75500005 1.6033717e-38
0.26605999 -0.076734282 0.75300002 1.603372e-38
0.26713905 -0.076632388 0.75200003 1.5942248e-38
0.26785716 -0.076428577 0.75000006 1.5850055e-38
0.26928574 -0.076428577 0.75000006 1.5666387e-38
0.26999238 -0.076224767 0.74800003 1.5481628e-38
0.2710543 -0.076122858 0.74700004 1.5756765e-38
0.27247715 -0.076122858 0.74700004 1.6032284e-38
0.27316669 -0.075919047 0.74500006 1.5940459e-38
0.27458575 -0.075919047 0.74500006 1.5848627e-38
0.27526382 -0.075715244 0.74300003 1.5940105e-38
0.27630666 -0.075613335 0.74200004 1.6033018e-38
0.27697143 -0.075409524 0.74000001 1.6031585e-38
0.27838096 -0.075409524 0.74000001 1.6033022e-38
0.27941236 -0.075307623 0.73900002 1.5940831e-38
0.28082001 -0.075307623 0.73900002 1.5941907e-38
0.28146383 -0.075103819 0.73700005 1.6125219e-38
0.28286764 -0.075103819 0.73700005 1.6401084e-38
0.28427145 -0.075103819 0.73700005 1.6401445e-38
0.28567526 -0.075103819 0.73700005 1.6493633e-38
0.28707907 -0.075103819 0.73700005 1.640251e-38
0.28848287 -0.075103819 0.73700005 1.6402156e-38
0.28988668 -0.075103819 0.73700005 1.6310327e-38
0.29129049 -0.075103819 0.73700005 1.6309611e-38
0.2926943 -0.075103819 0.73700005 1.6217419e-38
0.29369909 -0.07500191 0.73600006 1.6216696e-38
0.29510096 -0.07500191 0.73600006 1.6216333e-38
0.29690573 -0.075103819 0.73700005 1.6308164e-38
0.29830953 -0.075103819 0.73700005 1.6308518e-38
0.29971337 -0.075103819 0.73700005 1.6309238e-38
0.30111718 -0.075103819 0.73700005 1.474194e-38
0.30252099 -0.075103819 0.73700005 1.3269318e-38
0.3039248 -0.075103819 0.73700005 1.2800789e-38
0.30615714 -0.075307623 0.73900002 1.2434165e-38
0.3075648 -0.075307623 0.73900002 1.2252288e-38
0.30897239 -0.075307623 0.73900002 1.2068253e-38
0.31079999 -0.075409524 0.74000001 1.2160081e-38
0.31220952 -0.075409524 0.74000001 1.2344107e-38
0.26308858 -0.076100007 0.76100004 1.6585465e-38
0.2641905 -0.076000005 0.76000005 1.6493626e-38
0.26493904 -0.075800002 0.75800002 1.6402144e-38
0.26568002 -0.075600006 0.75600004 1.640214e-38
0.26605999 -0.075300001 0.75300002 1.6402141e-38
0.26749429 -0.075300001 0.75300002 1.6218471e-38
0.26857144 -0.075200006 0.75200003 1.6126639e-38
0.26928574 -0.075000003 0.75000006 1.6034089e-38
0.26999238 -0.0748 0.74800003 1.5848962e-38
0.27141714 -0.0748 0.74800003 1.6032972e-38
0.27247715 -0.074700005 0.74700004 1.6217377e-38
0.2739 -0.074700005 0.74700004 1.6124842e-38
0.27458575 -0.074500002 0.74500006 1.6124485e-38
0.27526382 -0.074299999 0.74300003 1.6216323e-38
0.27667904 -0.074299999 0.74300003 1.630852e-38
0.27772 -0.074200004 0.74200004 1.6308523e-38
0.27913335 -0.074200004 0.74200004 1.6308885e-38
0.27979046 -0.074000001 0.74000001 1.6308887e-38
0.28082001 -0.073899999 0.73900002 1.6309249e-38
0.28222764 -0.073899999 0.73900002 1.6401089e-38
0.28363526 -0.073899999 0.73900002 1.6492923e-38
0.28504285 -0.073899999 0.73900002 1.6585474e-38
0.28645048 -0.073899999 0.73900002 1.6586188e-38
0.2878581 -0.073899999 0.73900002 1.6585826e-38
0.28926572 -0.073899999 0.73900002 1.6585113e-38
0.28988668 -0.073700003 0.73700005 1.6493283e-38
0.29129049 -0.073700003 0.73700005 1.6493283e-38
0.2926943 -0.073700003 0.73700005 1.6493284e-38
0.29409811 -0.073700003 0.73700005 1.6493279e-38
0.29550192 -0.073700003 0.73700005 1.6493275e-38
0.29771143 -0.073899999 0.73900002 1.6585465e-38
0.29830953 -0.073700003 0.73700005 1.658546e-38
0.30052668 -0.073899999 0.73900002 1.6677289e-38
0.3019343 -0.073899999 0.73900002 1.4833757e-38
0.3033419 -0.073899999 0.73900002 1.3083842e-38
0.30474952 -0.073899999 0.73900002 1.2894772e-38
0.30657142 -0.074000001 0.74000001 1.2618908e-38
0.30798095 -0.074000001 0.74000001 1.2435956e-38
0.30939049 -0.074000001 0.74000001 1.2254071e-38
0.31164002 -0.074200004 0.74200004 1.234554e-38
0.31305334 -0.074200004 0.74200004 1.2437019e-38
0.31446669 -0.074200004 0.74200004 1.243702e-38
0.26078001 -0.075239047 0.76700002 1.7137203e-38
0.26224095 -0.075239047 0.76700002 1.7045722e-38
0.26232666 -0.07484667 0.76300001 1.6954243e-38
0.26378 -0.07484667 0.76300001 1.6953883e-38
0.26453811 -0.074650481 0.76100004 1.6862046e-38
0.26568002 -0.074160002 0.75600004 1.6769489e-38
0.26676667 -0.074061908 0.75500005 1.676949e-38
0.26749429 -0.073865719 0.75300002 1.6586178e-38
0.26857144 -0.073767617 0.75200003 1.6493982e-38
0.26928574 -0.073571436 0.75000006 1.6401787e-38
0.27071431 -0.073571436 0.75000006 1.6309941e-38
0.27141714 -0.07337524 0.74800003 1.6309933e-38
0.2728419 -0.07337524 0.74800003 1.6401778e-38
0.2739 -0.073277146 0.74700004 1.6402145e-38
0.27458575 -0.073080957 0.74500006 1.6493623e-38
0.27526382 -0.072884768 0.74300003 1.6493266e-38
0.27667904 -0.072884768 0.74300003 1.6585104e-38
0.27809429 -0.072884768 0.74300003 1.6585465e-38
0.27913335 -0.072786666 0.74200004 1.6677303e-38
0.28054667 -0.072786666 0.74200004 1.6677307e-38
0.28119999 -0.072590478 0.74000001 1.6769144e-38
0.28260952 -0.072590478 0.74000001 1.667731e-38
0.28401905 -0.072590478 0.74000001 1.6678027e-38
0.28504285 -0.072492383 0.73900002 1.6679104e-38
0.28645048 -0.072492383 0.73900002 1.6769852e-38
0.2878581 -0.072492383 0.73900002 1.6769124e-38
0.28926572 -0.072492383 0.73900002 1.6768061e-38
0.29067335 -0.072492383 0.73900002 1.667552e-38
0.29208094 -0.072492383 0.73900002 1.6676961e-38
0.29348856 -0.072492383 0.73900002 1.6678401e-38
0.29489622 -0.072492383 0.73900002 1.6769871e-38
0.29630384 -0.072492383 0.73900002 1.6861701e-38
0.29771143 -0.072492383 0.73900002 1.6954248e-38
0.29911906 -0.072492383 0.73900002 1.6954959e-38
0.30052668 -0.072492383 0.73900002 1.7047142e-38
