# .PCD v0.7 - Point Cloud Data file format
VERSION 0.7
FIELDS x y z rgb
SIZE 4 4 4 4
TYPE F F F F
COUNT 1 1 1 1
WIDTH 965
HEIGHT 1
VIEWPOINT 0 0 0 1 0 0 0
POINTS 965
DATA ascii
-0.22569999 -0.095459998 0.77700001 1.7908422e-38
-0.22479716 -0.095705718 0.77900004 1.8000248e-38
-0.22331335 -0.095705718 0.77900004 1.8000251e-38
-0.22182953 -0.095705718 0.77900004 1.8092089e-38
-0.21886191 -0.095705718 0.77900004 1.8092096e-38
-0.21320002 -0.09582857 0.78000003 1.8276856e-38
-0.21225716 -0.096074291 0.78200006 1.8370839e-38
-0.21076763 -0.096074291 0.78200006 1.8192904e-38
-0.20927811 -0.096074291 0.78200006 1.8014981e-38
-0.20832001 -0.096320003 0.78400004 1.6174694e-38
-0.20682667 -0.096320003 0.78400004 1.4334336e-38
-0.20585714 -0.096565716 0.78600001 1.1848262e-38
-0.20435999 -0.096565716 0.78600001 9.3676172e-39
-0.20286286 -0.096565716 0.78600001 7.3472279e-39
-0.20114 -0.097180001 0.79100001 7.1765259e-39
-0.20013809 -0.097425714 0.79300004 9.0207888e-39
-0.19862762 -0.097425714 0.79300004 1.0041761e-38
-0.19711715 -0.097425714 0.79300004 1.1145932e-38
-0.26222858 -0.094342858 0.78000003 1.7541421e-38
-0.26074284 -0.094342858 0.78000003 1.7449944e-38
-0.25925714 -0.094342858 0.78000003 1.7449226e-38
-0.25744095 -0.094221912 0.77900004 1.7541062e-38
-0.25529999 -0.093979999 0.77700001 1.7724731e-38
-0.25104097 -0.093496196 0.77300006 1.781657e-38
-0.24924572 -0.093375236 0.77200001 1.7724738e-38
-0.2480962 -0.093496196 0.77300006 1.7724738e-38
-0.24630475 -0.093375236 0.77200001 1.7816575e-38
-0.2448343 -0.093375236 0.77200001 1.8000248e-38
-0.24273334 -0.093133338 0.77000004 1.8000251e-38
-0.24126668 -0.093133338 0.77000004 1.8000246e-38
-0.23980001 -0.093133338 0.77000004 1.7908408e-38
-0.23833334 -0.093133338 0.77000004 1.7816573e-38
-0.23748191 -0.093375236 0.77200001 1.7816574e-38
-0.23540001 -0.093133338 0.77000004 1.7816587e-38
-0.23454095 -0.093375236 0.77200001 1.7724764e-38
-0.23307048 -0.093375236 0.77200001 1.7632916e-38
-0.23190002 -0.093496196 0.77300006 1.7724738e-38
-0.23042764 -0.093496196 0.77300006 1.7816567e-38
-0.22954762 -0.093738094 0.77500004 1.7724724e-38
-0.22807144 -0.093738094 0.77500004 1.7724737e-38
-0.22659525 -0.093738094 0.77500004 1.7816587e-38
-0.22569999 -0.093979999 0.77700001 1.8000248e-38
-0.22479716 -0.094221912 0.77900004 1.7908402e-38
-0.22331335 -0.094221912 0.77900004 1.7816575e-38
-0.22182953 -0.094221912 0.77900004 1.7908419e-38
-0.21914285 -0.094342858 0.78000003 1.8183931e-38
-0.21765715 -0.094342858 0.78000003 1.8276127e-38
-0.21617144 -0.094342858 0.78000003 1.8368324e-38
-0.21280001 -0.094826676 0.78400004 1.8466273e-38
-0.21130668 -0.094826676 0.78400004 1.8014631e-38
-0.20981334 -0.094826676 0.78400004 1.7642226e-38
-0.20885143 -0.095068567 0.78600001 1.4055937e-38
-0.20735428 -0.095068567 0.78600001 1.0564386e-38
-0.20585714 -0.095068567 0.78600001 8.7258743e-39
-0.20435999 -0.095068567 0.78600001 6.9802558e-39
-0.20286286 -0.095068567 0.78600001 6.1533524e-39
-0.20063144 -0.095431432 0.78900003 7.0835721e-39
-0.25744095 -0.092738099 0.77900004 1.7632897e-38
-0.25104097 -0.092023812 0.77300006 1.7816567e-38
-0.24924572 -0.091904759 0.77200001 1.772474e-38
-0.24777524 -0.091904759 0.77200001 1.7632902e-38
-0.24630475 -0.091904759 0.77200001 1.7724736e-38
-0.2448343 -0.091904759 0.77200001 1.7908405e-38
-0.24273334 -0.091666676 0.77000004 1.7908404e-38
-0.24126668 -0.091666676 0.77000004 1.7908404e-38
-0.23980001 -0.091666676 0.77000004 1.7816568e-38
-0.23895238 -0.091904759 0.77200001 1.7816571e-38
-0.23748191 -0.091904759 0.77200001 1.772474e-38
-0.23540001 -0.091666676 0.77000004 1.7724758e-38
-0.23454095 -0.091904759 0.77200001 1.7724776e-38
-0.23307048 -0.091904759 0.77200001 1.7632925e-38
-0.23190002 -0.092023812 0.77300006 1.7724747e-38
-0.23042764 -0.092023812 0.77300006 1.7724743e-38
-0.22895525 -0.092023812 0.77300006 1.7816575e-38
-0.22748289 -0.092023812 0.77300006 1.7816575e-38
-0.22659525 -0.09226191 0.77500004 1.8000248e-38
-0.22569999 -0.092500001 0.77700001 1.8183909e-38
-0.22479716 -0.092738099 0.77900004 1.8000228e-38
-0.22360002 -0.092857152 0.78000003 1.7908407e-38
-0.22182953 -0.092738099 0.77900004 1.8000256e-38
-0.22034572 -0.092738099 0.77900004 1.8092093e-38
-0.21914285 -0.092857152 0.78000003 1.8183931e-38
-0.21821526 -0.093095243 0.78200006 1.8276127e-38
-0.21672572 -0.093095243 0.78200006 1.8276128e-38
-0.2152362 -0.093095243 0.78200006 1.8368694e-38
-0.21429335 -0.093333341 0.78400004 1.8187547e-38
-0.21184571 -0.093571424 0.78600001 1.6170404e-38
-0.21034856 -0.093571424 0.78600001 1.4330017e-38
-0.20885143 -0.093571424 0.78600001 1.1205727e-38
-0.20735428 -0.093571424 0.78600001 8.1737627e-39
-0.20638096 -0.09380953 0.78800005 7.623868e-39
-0.20488 -0.09380953 0.78800005 7.0742465e-39
-0.20337906 -0.09380953 0.78800005 7.899289e-39
-0.2021343 -0.093928576 0.78900003 8.8165678e-39
-0.20063144 -0.093928576 0.78900003 9.5623724e-39
-0.25382 -0.091019996 0.77700001 1.7816549e-38
-0.2495686 -0.090551436 0.77300006 1.7632918e-38
-0.2480962 -0.090551436 0.77300006 1.7541073e-38
-0.24662383 -0.090551436 0.77300006 1.76329e-38
-0.24515145 -0.090551436 0.77300006 1.781657e-38
-0.2433638 -0.090434283 0.77200001 1.7816568e-38
-0.24189334 -0.090434283 0.77200001 1.7908404e-38
-0.24073431 -0.090551436 0.77300006 1.781657e-38
-0.23895238 -0.090434283 0.77200001 1.7816571e-38
-0.23748191 -0.090434283 0.77200001 1.7724738e-38
-0.23601143 -0.090434283 0.77200001 1.7724743e-38
-0.23454095 -0.090434283 0.77200001 1.7724748e-38
-0.23307048 -0.090434283 0.77200001 1.7724743e-38
-0.23190002 -0.090551436 0.77300006 1.7724738e-38
-0.23042764 -0.090551436 0.77300006 1.7724738e-38
-0.22895525 -0.090551436 0.77300006 1.7816574e-38
-0.22748289 -0.090551436 0.77300006 1.8000249e-38
-0.22659525 -0.090785719 0.77500004 1.8183924e-38
-0.22569999 -0.091019996 0.77700001 1.8367585e-38
-0.22508572 -0.091371432 0.78000003 1.8183905e-38
-0.22360002 -0.091371432 0.78000003 1.8000242e-38
-0.22182953 -0.091254294 0.77900004 1.8000252e-38
-0.22034572 -0.091254294 0.77900004 1.809209e-38
-0.21914285 -0.091371432 0.78000003 1.8183929e-38
-0.21765715 -0.091371432 0.78000003 1.8276123e-38
-0.21617144 -0.091371432 0.78000003 1.8276123e-38
-0.21374668 -0.091605715 0.78200006 1.8006028e-38
-0.21280001 -0.091840006 0.78400004 1.7734434e-38
-0.21130668 -0.091840006 0.78400004 1.4328954e-38
-0.20885143 -0.092074282 0.78600001 8.4495929e-39
-0.20788191 -0.092308573 0.78800005 5.8782158e-39
-0.20638096 -0.092308573 0.78800005 6.5253859e-39
-0.20488 -0.092308573 0.78800005 7.1660988e-39
-0.20363715 -0.092425719 0.78900003 9.745759e-39
-0.2021343 -0.092425719 0.78900003 1.2317151e-38
-0.20063144 -0.092425719 0.78900003 1.1949807e-38
-0.26125142 -0.090577148 0.78600001 1.7541076e-38
-0.25382 -0.089539997 0.77700001 1.7816539e-38
-0.25233999 -0.089539997 0.77700001 1.7816571e-38
-0.25021428 -0.089309521 0.77500004 1.7724768e-38
-0.24873811 -0.089309521 0.77500004 1.754108e-38
-0.2472619 -0.089309521 0.77500004 1.76329e-38
-0.24578573 -0.089309521 0.77500004 1.7724734e-38
-0.24367906 -0.089079052 0.77300006 1.7816568e-38
-0.24073431 -0.089079052 0.77300006 1.7816573e-38
-0.23926193 -0.089079052 0.77300006 1.7816573e-38
-0.23778954 -0.089079052 0.77300006 1.7724737e-38
-0.23601143 -0.088963814 0.77200001 1.7724729e-38
-0.23484477 -0.089079052 0.77300006 1.772472e-38
-0.23307048 -0.088963814 0.77200001 1.763289e-38
-0.23190002 -0.089079052 0.77300006 1.7724731e-38
-0.23042764 -0.089079052 0.77300006 1.7724734e-38
-0.22895525 -0.089079052 0.77300006 1.7816573e-38
-0.22748289 -0.089079052 0.77300006 1.7908415e-38
-0.22718 -0.089539997 0.77700001 1.8000259e-38
-0.22569999 -0.089539997 0.77700001 1.818392e-38
-0.22508572 -0.089885719 0.78000003 1.8000239e-38
-0.22360002 -0.089885719 0.78000003 1.7908408e-38
-0.22182953 -0.089770481 0.77900004 1.8000248e-38
-0.22034572 -0.089770481 0.77900004 1.8092087e-38
-0.21914285 -0.089885719 0.78000003 1.8092092e-38
-0.21821526 -0.090116195 0.78200006 1.8092448e-38
-0.21672572 -0.090116195 0.78200006 1.8277193e-38
-0.2152362 -0.090116195 0.78200006 1.8372634e-38
-0.21429335 -0.090346672 0.78400004 1.6627061e-38
-0.21280001 -0.090346672 0.78400004 1.488642e-38
-0.21184571 -0.090577148 0.78600001 1.1664572e-38
-0.21034856 -0.090577148 0.78600001 8.4492482e-39
-0.20938288 -0.090807624 0.78800005 7.3475754e-39
-0.20788191 -0.090807624 0.78800005 6.2458997e-39
-0.20638096 -0.090807624 0.78800005 8.9098382e-39
-0.20488 -0.090807624 0.78800005 1.1574218e-38
-0.20337906 -0.090807624 0.78800005 1.3608665e-38
-0.2021343 -0.090922855 0.78900003 1.5536489e-38
-0.26191622 -0.089306667 0.78800005 1.7541067e-38
-0.24873811 -0.087833337 0.77500004 1.7632902e-38
-0.2472619 -0.087833337 0.77500004 1.7632892e-38
-0.24578573 -0.087833337 0.77500004 1.7724733e-38
-0.24430954 -0.087833337 0.77500004 1.7816574e-38
-0.24283333 -0.087833337 0.77500004 1.7908414e-38
-0.24073431 -0.087606676 0.77300006 1.7816582e-38
-0.23926193 -0.087606676 0.77300006 1.7816578e-38
-0.23778954 -0.087606676 0.77300006 1.7816575e-38
-0.23631717 -0.087606676 0.77300006 1.7816571e-38
-0.23484477 -0.087606676 0.77300006 1.7724731e-38
-0.23337239 -0.087606676 0.77300006 1.7632899e-38
-0.23190002 -0.087606676 0.77300006 1.7724737e-38
-0.23042764 -0.087606676 0.77300006 1.7816575e-38
-0.22895525 -0.087606676 0.77300006 1.7816578e-38
-0.22748289 -0.087606676 0.77300006 1.781658e-38
-0.22659525 -0.087833337 0.77500004 1.7908416e-38
-0.22569999 -0.088059999 0.77700001 1.8000236e-38
-0.22479716 -0.088286668 0.77900004 1.7908386e-38
-0.22331335 -0.088286668 0.77900004 1.7816561e-38
-0.22034572 -0.088286668 0.77900004 1.8092087e-38
-0.21914285 -0.088400006 0.78000003 1.800026e-38
-0.21765715 -0.088400006 0.78000003 1.8001338e-38
-0.21672572 -0.088626675 0.78200006 1.8186447e-38
-0.21578667 -0.088853337 0.78400004 1.8461952e-38
-0.21429335 -0.088853337 0.78400004 1.5248065e-38
-0.21334286 -0.089080006 0.78600001 1.2124172e-38
-0.21184571 -0.089080006 0.78600001 9.000278e-39
-0.21034856 -0.089080006 0.78600001 5.8782243e-39
-0.20938288 -0.089306667 0.78800005 6.247713e-39
-0.20788191 -0.089306667 0.78800005 6.6129138e-39
-0.20638096 -0.089306667 0.78800005 1.1309451e-38
-0.20488 -0.089306667 0.78800005 1.6089262e-38
-0.20337906 -0.089306667 0.78800005 1.7471518e-38
-0.26224858 -0.087917142 0.78900003 1.7358107e-38
-0.26041523 -0.087805718 0.78800005 1.7541414e-38
-0.24873811 -0.086357147 0.77500004 1.7632887e-38
-0.2472619 -0.086357147 0.77500004 1.7632885e-38
-0.24578573 -0.086357147 0.77500004 1.7724731e-38
-0.24430954 -0.086357147 0.77500004 1.781658e-38
-0.24283333 -0.086357147 0.77500004 1.7908421e-38
-0.24073431 -0.086134292 0.77300006 1.7816592e-38
-0.23926193 -0.086134292 0.77300006 1.7632914e-38
-0.23778954 -0.086134292 0.77300006 1.7724744e-38
-0.23631717 -0.086134292 0.77300006 1.781658e-38
-0.23545238 -0.086357147 0.77500004 1.7724744e-38
-0.23337239 -0.086134292 0.77300006 1.7632907e-38
-0.23190002 -0.086134292 0.77300006 1.7724743e-38
-0.22895525 -0.086134292 0.77300006 1.7816584e-38
-0.22748289 -0.086134292 0.77300006 1.7816578e-38
-0.22718 -0.086580001 0.77700001 1.7816574e-38
-0.22569999 -0.086580001 0.77700001 1.7908388e-38
-0.22479716 -0.086802863 0.77900004 1.7908367e-38
-0.22331335 -0.086802863 0.77900004 1.7817269e-38
-0.22182953 -0.086802863 0.77900004 1.7909125e-38
-0.22034572 -0.086802863 0.77900004 1.8000971e-38
-0.21914285 -0.086914286 0.78000003 1.8002417e-38
-0.21765715 -0.086914286 0.78000003 1.8004576e-38
-0.21672572 -0.087137155 0.78200006 1.7450342e-38
-0.21633714 -0.087582856 0.78600001 1.6820385e-38
-0.21483999 -0.087582856 0.78600001 1.3134387e-38
-0.21334286 -0.087582856 0.78600001 9.4595003e-39
-0.21184571 -0.087582856 0.78600001 7.7149524e-39
-0.21034856 -0.087582856 0.78600001 5.9704311e-39
-0.20885143 -0.087582856 0.78600001 8.2659542e-39
-0.20788191 -0.087805718 0.78800005 1.0561514e-38
-0.20638096 -0.087805718 0.78800005 1.3890224e-38
-0.20488 -0.087805718 0.78800005 1.72889e-38
-0.20337906 -0.087805718 0.78800005 1.7472976e-38
-0.2018781 -0.087805718 0.78800005 1.7656974e-38
-0.26224858 -0.086414285 0.78900003 1.7265913e-38
-0.26041523 -0.086304761 0.78800005 1.7450294e-38
-0.24937999 -0.085100003 0.77700001 1.7632889e-38
-0.24790001 -0.085100003 0.77700001 1.7724726e-38
-0.24642 -0.085100003 0.77700001 1.781657e-38
-0.24494001 -0.085100003 0.77700001 1.7908414e-38
-0.24346001 -0.085100003 0.77700001 1.8000253e-38
-0.24135716 -0.084880956 0.77500004 1.7724751e-38
-0.23988096 -0.084880956 0.77500004 1.754107e-38
-0.23840477 -0.084880956 0.77500004 1.772473e-38
-0.23692858 -0.084880956 0.77500004 1.7908411e-38
-0.23545238 -0.084880956 0.77500004 1.7816585e-38
-0.23337239 -0.084661908 0.77300006 1.7724744e-38
-0.23190002 -0.084661908 0.77300006 1.7816574e-38
-0.23042764 -0.084661908 0.77300006 1.8000248e-38
-0.22895525 -0.084661908 0.77300006 1.7908415e-38
-0.22748289 -0.084661908 0.77300006 1.7816575e-38
-0.22659525 -0.084880956 0.77500004 1.7816573e-38
-0.22569999 -0.085100003 0.77700001 1.7908398e-38
-0.22421999 -0.085100003 0.77700001 1.7908387e-38
-0.22273999 -0.085100003 0.77700001 1.7908758e-38
-0.22126 -0.085100003 0.77700001 1.7909488e-38
-0.22034572 -0.08531905 0.77900004 1.7908778e-38
-0.21914285 -0.085428573 0.78000003 1.8003849e-38
-0.21765715 -0.085428573 0.78000003 1.8093885e-38
-0.21633714 -0.086085714 0.78600001 1.5245151e-38
-0.21483999 -0.086085714 0.78600001 1.1020683e-38
-0.21334286 -0.086085714 0.78600001 6.8880728e-39
-0.21184571 -0.086085714 0.78600001 6.4296002e-39
-0.21034856 -0.086085714 0.78600001 6.0619191e-39
-0.20885143 -0.086085714 0.78600001 1.0289959e-38
-0.20788191 -0.086304761 0.78800005 1.4523745e-38
-0.20638096 -0.086304761 0.78800005 1.6562807e-38
-0.20488 -0.086304761 0.78800005 1.8569581e-38
-0.20337906 -0.086304761 0.78800005 1.7558341e-38
-0.2018781 -0.086304761 0.78800005 1.6540937e-38
-0.26224858 -0.084911436 0.78900003 1.7449585e-38
-0.26041523 -0.084803812 0.78800005 1.7541052e-38
-0.24937999 -0.083620004 0.77700001 1.763289e-38
-0.24790001 -0.083620004 0.77700001 1.7632896e-38
-0.24642 -0.083620004 0.77700001 1.7724736e-38
-0.24494001 -0.083620004 0.77700001 1.7816577e-38
-0.24346001 -0.083620004 0.77700001 1.7908415e-38
-0.24135716 -0.083404765 0.77500004 1.7724747e-38
-0.23988096 -0.083404765 0.77500004 1.7632896e-38
-0.23840477 -0.083404765 0.77500004 1.7724717e-38
-0.23754001 -0.083620004 0.77700001 1.7816573e-38
-0.23545238 -0.083404765 0.77500004 1.7724757e-38
-0.23337239 -0.083189532 0.77300006 1.763291e-38
-0.23190002 -0.083189532 0.77300006 1.7724736e-38
-0.23042764 -0.083189532 0.77300006 1.7816573e-38
-0.22895525 -0.083189532 0.77300006 1.772474e-38
-0.22807144 -0.083404765 0.77500004 1.7724738e-38
-0.22718 -0.083620004 0.77700001 1.7724737e-38
-0.22569999 -0.083620004 0.77700001 1.7816573e-38
-0.22479716 -0.083835244 0.77900004 1.7816573e-38
-0.22273999 -0.083620004 0.77700001 1.7816577e-38
-0.22126 -0.083620004 0.77700001 1.7816581e-38
-0.22034572 -0.083835244 0.77900004 1.7816584e-38
-0.21886191 -0.083835244 0.77900004 1.8003488e-38
-0.21737809 -0.083835244 0.77900004 1.8193599e-38
-0.21617144 -0.08394286 0.78000003 1.524516e-38
-0.21483999 -0.084588572 0.78600001 9.9186035e-39
-0.21334286 -0.084588572 0.78600001 7.5308876e-39
-0.21184571 -0.084588572 0.78600001 7.1635541e-39
-0.21034856 -0.084588572 0.78600001 6.8880924e-39
-0.20938288 -0.084803812 0.78800005 1.0663078e-38
-0.20814572 -0.084911436 0.78900003 1.4445574e-38
-0.20638096 -0.084803812 0.78800005 1.4163273e-38
-0.20488 -0.084803812 0.78800005 1.3881314e-38
-0.20337906 -0.084803812 0.78800005 1.3325286e-38
-0.2018781 -0.084803812 0.78800005 1.286104e-38
-0.26041523 -0.083302855 0.78800005 1.763289e-38
-0.25891429 -0.083302855 0.78800005 1.7724716e-38
-0.24642 -0.082139999 0.77700001 1.7632904e-38
-0.24494001 -0.082139999 0.77700001 1.7724744e-38
-0.24346001 -0.082139999 0.77700001 1.7908421e-38
-0.24198 -0.082139999 0.77700001 1.7816591e-38
-0.2405 -0.082139999 0.77700001 1.772474e-38
-0.23902 -0.082139999 0.77700001 1.7724724e-38
-0.23754001 -0.082139999 0.77700001 1.7724736e-38
-0.22954762 -0.081928574 0.77500004 1.7632899e-38
-0.22807144 -0.081928574 0.77500004 1.76329e-38
-0.22718 -0.082139999 0.77700001 1.7724737e-38
-0.22569999 -0.082139999 0.77700001 1.7816578e-38
-0.22479716 -0.082351431 0.77900004 1.7816584e-38
-0.22273999 -0.082139999 0.77700001 1.781658e-38
-0.22126 -0.082139999 0.77700001 1.7816577e-38
-0.22034572 -0.082351431 0.77900004 1.7816937e-38
-0.21886191 -0.082351431 0.77900004 1.8003122e-38
-0.21737809 -0.082351431 0.77900004 1.8281836e-38
-0.21617144 -0.08245714 0.78000003 1.3959449e-38
-0.21429335 -0.082879998 0.78400004 8.9084425e-39
-0.21334286 -0.08309143 0.78600001 8.1737697e-39
-0.21184571 -0.08309143 0.78600001 7.8986332e-39
-0.21034856 -0.08309143 0.78600001 7.7156937e-39
-0.20938288 -0.083302855 0.78800005 1.1036135e-38
-0.20814572 -0.083408572 0.78900003 1.4426523e-38
-0.20664287 -0.083408572 0.78900003 1.1755769e-38
-0.20488 -0.083302855 0.78800005 9.1843708e-39
-0.20337906 -0.083302855 0.78800005 9.1847253e-39
-0.2018781 -0.083302855 0.78800005 9.1854386e-39
-0.26224858 -0.081905723 0.78900003 1.7541065e-38
-0.26074573 -0.081905723 0.78900003 1.7541059e-38
-0.25891429 -0.081801906 0.78800005 1.7632879e-38
-0.25098479 -0.081179053 0.78200006 1.76329e-38
-0.24705429 -0.080867618 0.77900004 1.7357402e-38
-0.2455705 -0.080867618 0.77900004 1.7632913e-38
-0.24408668 -0.080867618 0.77900004 1.8000263e-38
-0.24260287 -0.080867618 0.77900004 1.7816601e-38
-0.2405 -0.08066 0.77700001 1.7632913e-38
-0.23963526 -0.080867618 0.77900004 1.7632897e-38
-0.23815145 -0.080867618 0.77900004 1.7632899e-38
-0.23666762 -0.080867618 0.77900004 1.7541066e-38
-0.23518382 -0.080867618 0.77900004 1.7541062e-38
-0.23370001 -0.080867618 0.77900004 1.7541059e-38
-0.23251429 -0.080971435 0.78000003 1.7541059e-38
-0.22776477 -0.080867618 0.77900004 1.7816573e-38
-0.22628097 -0.080867618 0.77900004 1.8000255e-38
-0.22479716 -0.080867618 0.77900004 1.7908432e-38
-0.22331335 -0.080867618 0.77900004 1.7816584e-38
-0.22182953 -0.080867618 0.77900004 1.7908408e-38
-0.22034572 -0.080867618 0.77900004 1.8000962e-38
-0.21886191 -0.080867618 0.77900004 1.7361344e-38
-0.21737809 -0.080867618 0.77900004 1.672708e-38
-0.21617144 -0.080971435 0.78000003 1.2306396e-38
-0.21483999 -0.081594288 0.78600001 8.2656249e-39
-0.21334286 -0.081594288 0.78600001 8.5411454e-39
-0.21184571 -0.081594288 0.78600001 9.8279339e-39
-0.21034856 -0.081594288 0.78600001 1.1115048e-38
-0.20938288 -0.081801906 0.78800005 1.2769505e-38
-0.20664287 -0.081905723 0.78900003 1.221669e-38
-0.20513999 -0.081905723 0.78900003 1.0102307e-38
-0.20337906 -0.081801906 0.78800005 1.0840923e-38
-0.2018781 -0.081801906 0.78800005 1.1675372e-38
-0.19881335 -0.083670482 0.80600005 1.0869013e-38
-0.19727811 -0.083670482 0.80600005 1.1054107e-38
-0.26224858 -0.080402859 0.78900003 1.754107e-38
-0.26074573 -0.080402859 0.78900003 1.7541062e-38
-0.25924286 -0.080402859 0.78900003 1.7541056e-38
-0.25741336 -0.080300957 0.78800005 1.7449572e-38
-0.25526285 -0.080097146 0.78600001 1.7449222e-38
-0.25376573 -0.080097146 0.78600001 1.7541066e-38
-0.25162667 -0.079893336 0.78400004 1.7632904e-38
-0.2465162 -0.079689525 0.78200006 1.7541076e-38
-0.24439999 -0.079485722 0.78000003 1.8092093e-38
-0.24291429 -0.079485722 0.78000003 1.7816591e-38
-0.24142858 -0.079485722 0.78000003 1.7632909e-38
-0.23994286 -0.079485722 0.78000003 1.7541063e-38
-0.23815145 -0.079383813 0.77900004 1.7541066e-38
-0.23666762 -0.079383813 0.77900004 1.7541069e-38
-0.23548572 -0.079485722 0.78000003 1.754107e-38
-0.23162098 -0.079689525 0.78200006 1.7541063e-38
-0.22805715 -0.079485722 0.78000003 1.7908405e-38
-0.22628097 -0.079383813 0.77900004 1.818392e-38
-0.22508572 -0.079485722 0.78000003 1.8000256e-38
-0.22331335 -0.079383813 0.77900004 1.7816578e-38
-0.22182953 -0.079383813 0.77900004 1.8000242e-38
-0.22034572 -0.079383813 0.77900004 1.8277186e-38
-0.21886191 -0.079383813 0.77900004 1.6719933e-38
-0.21765715 -0.079485722 0.78000003 1.5257346e-38
-0.21672572 -0.079689525 0.78200006 1.0745175e-38
-0.21483999 -0.080097146 0.78600001 7.6238596e-39
-0.21388572 -0.080300957 0.78800005 9.0003256e-39
-0.21238478 -0.080300957 0.78800005 1.176724e-38
-0.21088381 -0.080300957 0.78800005 1.4605885e-38
-0.20964858 -0.080402859 0.78900003 1.4517633e-38
-0.20867334 -0.080606669 0.79100001 1.4423642e-38
-0.20664287 -0.080402859 0.78900003 1.2769523e-38
-0.20513999 -0.080402859 0.78900003 1.1113247e-38
-0.20363715 -0.080402859 0.78900003 1.2589422e-38
-0.19881335 -0.082135238 0.80600005 1.0684962e-38
-0.19727811 -0.082135238 0.80600005 1.1052662e-38
-0.26224858 -0.078900002 0.78900003 1.7541074e-38
-0.26074573 -0.078900002 0.78900003 1.7541066e-38
-0.25924286 -0.078900002 0.78900003 1.7541067e-38
-0.25774002 -0.078900002 0.78900003 1.7449235e-38
-0.25526285 -0.078599997 0.78600001 1.7449235e-38
-0.25376573 -0.078599997 0.78600001 1.754107e-38
-0.25226858 -0.078599997 0.78600001 1.7724745e-38
-0.25013334 -0.078400008 0.78400004 1.7449243e-38
-0.24800575 -0.078200005 0.78200006 1.7265929e-38
-0.2465162 -0.078200005 0.78200006 1.7632911e-38
-0.24502668 -0.078200005 0.78200006 1.7908416e-38
-0.24291429 -0.078000002 0.78000003 1.7816581e-38
-0.24204764 -0.078200005 0.78200006 1.7632904e-38
-0.2405581 -0.078200005 0.78200006 1.76329e-38
-0.23845714 -0.078000002 0.78000003 1.7632903e-38
-0.23697144 -0.078000002 0.78000003 1.7632907e-38
-0.23548572 -0.078000002 0.78000003 1.7632914e-38
-0.23221333 -0.078400008 0.78400004 1.7449232e-38
-0.23072001 -0.078400008 0.78400004 1.76329e-38
-0.22922668 -0.078400008 0.78400004 1.7816568e-38
-0.22566287 -0.078200005 0.78200006 1.7816575e-38
-0.22417335 -0.078200005 0.78200006 1.7724737e-38
-0.22268383 -0.078200005 0.78200006 1.781657e-38
-0.22026668 -0.078400008 0.78400004 1.5891982e-38
-0.21728002 -0.078400008 0.78400004 1.0377815e-38
-0.21578667 -0.078400008 0.78400004 7.0717578e-39
-0.21483999 -0.078599997 0.78600001 7.8982983e-39
-0.21334286 -0.078599997 0.78600001 8.8170176e-39
-0.21238478 -0.078800008 0.78800005 1.1398462e-38
-0.21088381 -0.078800008 0.78800005 1.3964126e-38
-0.20964858 -0.078900002 0.78900003 1.4790655e-38
-0.20814572 -0.078900002 0.78900003 1.5617172e-38
-0.19881335 -0.080600001 0.80600005 1.0224329e-38
-0.19727811 -0.080600001 0.80600005 1.0684953e-38
-0.26074573 -0.077397145 0.78900003 1.7541045e-38
-0.25741336 -0.077299051 0.78800005 1.7541073e-38
-0.25526285 -0.077102855 0.78600001 1.7541063e-38
-0.25376573 -0.077102855 0.78600001 1.763289e-38
-0.25226858 -0.077102855 0.78600001 1.781657e-38
-0.25077143 -0.077102855 0.78600001 1.7632907e-38
-0.24864002 -0.076906674 0.78400004 1.754107e-38
-0.2465162 -0.076710477 0.78200006 1.7632904e-38
-0.24502668 -0.076710477 0.78200006 1.7816577e-38
-0.24204764 -0.076710477 0.78200006 1.7724737e-38
-0.2405581 -0.076710477 0.78200006 1.7724733e-38
-0.23669335 -0.076906674 0.78400004 1.7724736e-38
-0.2352 -0.076906674 0.78400004 1.7449226e-38
-0.23370668 -0.076906674 0.78400004 1.7265555e-38
-0.23221333 -0.076906674 0.78400004 1.7449228e-38
-0.23072001 -0.076906674 0.78400004 1.7632899e-38
-0.22922668 -0.076906674 0.78400004 1.7724736e-38
-0.22773334 -0.076906674 0.78400004 1.7816573e-38
-0.22624001 -0.076906674 0.78400004 1.772474e-38
-0.22474667 -0.076906674 0.78400004 1.7632913e-38
-0.22325334 -0.076906674 0.78400004 1.7724757e-38
-0.22176 -0.076906674 0.78400004 1.7817659e-38
-0.22026668 -0.076906674 0.78400004 1.506402e-38
-0.21877334 -0.076906674 0.78400004 1.2307467e-38
-0.21728002 -0.076906674 0.78400004 1.0010452e-38
-0.21578667 -0.076906674 0.78400004 7.8064137e-39
-0.21483999 -0.077102855 0.78600001 8.2674003e-39
-0.21334286 -0.077102855 0.78600001 8.7248135e-39
-0.21184571 -0.077102855 0.78600001 1.1030059e-38
-0.20981334 -0.076906674 0.78400004 1.3321639e-38
-0.20832001 -0.076906674 0.78400004 1.5066153e-38
-0.20722 -0.078181908 0.79700005 1.1664994e-38
-0.20596001 -0.078280002 0.79800004 1.1941207e-38
-0.20444 -0.078280002 0.79800004 1.231539e-38
-0.20266572 -0.078181908 0.79700005 1.4166832e-38
-0.19985144 -0.078868575 0.80400002 9.3048993e-39
-0.19881335 -0.079064764 0.80600005 9.8534123e-39
-0.19776762 -0.07926096 0.80800003 1.0405134e-38
-0.19622858 -0.07926096 0.80800003 1.0498038e-38
-0.26140666 -0.076086663 0.79100001 1.7541025e-38
-0.25924286 -0.075894289 0.78900003 1.7541051e-38
-0.25774002 -0.075894289 0.78900003 1.7449242e-38
-0.25591239 -0.075798102 0.78800005 1.7449222e-38
-0.25441143 -0.075798102 0.78800005 1.7541039e-38
-0.25226858 -0.075605713 0.78600001 1.7632887e-38
-0.25077143 -0.075605713 0.78600001 1.7541066e-38
-0.24714667 -0.075413339 0.78400004 1.7632899e-38
-0.24502668 -0.075220957 0.78200006 1.7724736e-38
-0.24353716 -0.075220957 0.78200006 1.7724738e-38
-0.24266668 -0.075413339 0.78400004 1.7724734e-38
-0.24117334 -0.075413339 0.78400004 1.772473e-38
-0.23968001 -0.075413339 0.78400004 1.7632899e-38
-0.23818667 -0.075413339 0.78400004 1.7724738e-38
-0.23669335 -0.075413339 0.78400004 1.7816558e-38
-0.23580001 -0.075605713 0.78600001 1.7541038e-38
-0.23430286 -0.075605713 0.78600001 1.7357378e-38
-0.23280571 -0.075605713 0.78600001 1.754106e-38
-0.23130858 -0.075605713 0.78600001 1.7632899e-38
-0.22981143 -0.075605713 0.78600001 1.7724738e-38
-0.2283143 -0.075605713 0.78600001 1.7816575e-38
-0.22681715 -0.075605713 0.78600001 1.7724741e-38
-0.22532 -0.075605713 0.78600001 1.7632924e-38
-0.22382286 -0.075605713 0.78600001 1.7725497e-38
-0.22176 -0.075413339 0.78400004 1.7920623e-38
-0.22082858 -0.075605713 0.78600001 1.4327894e-38
-0.21877334 -0.075413339 0.78400004 1.0837009e-38
-0.21783428 -0.075605713 0.78600001 8.8165692e-39
-0.21633714 -0.075605713 0.78600001 6.7965554e-39
-0.21483999 -0.075605713 0.78600001 7.6227259e-39
-0.21334286 -0.075605713 0.78600001 8.4492986e-39
-0.21184571 -0.075605713 0.78600001 1.2125643e-38
-0.20981334 -0.075413339 0.78400004 1.5710083e-38
-0.20832001 -0.075413339 0.78400004 1.6726358e-38
-0.20682667 -0.075413339 0.78400004 1.7742643e-38
-0.2087381 -0.076663807 0.79700005 1.5618585e-38
-0.20722 -0.076663807 0.79700005 1.350671e-38
-0.20570192 -0.076663807 0.79700005 1.2311754e-38
-0.20418383 -0.076663807 0.79700005 1.1117208e-38
-0.20292 -0.076760009 0.79800004 1.3705498e-38
-0.20190476 -0.076952383 0.80000001 1.627722e-38
-0.20034859 -0.077529527 0.80600005 1.2428019e-38
-0.19930667 -0.077721909 0.80800003 1.3258514e-38
-0.19776762 -0.077721909 0.80800003 1.3997475e-38
-0.19622858 -0.077721909 0.80800003 1.3998165e-38
-0.25989997 -0.074579999 0.79100001 1.7541053e-38
-0.25839332 -0.074579999 0.79100001 1.7449233e-38
-0.25623715 -0.074391425 0.78900003 1.7449225e-38
-0.25473428 -0.074391425 0.78900003 1.7449217e-38
-0.25323144 -0.074391425 0.78900003 1.7449228e-38
-0.25140953 -0.074297145 0.78800005 1.7541076e-38
-0.2499086 -0.074297145 0.78800005 1.7632904e-38
-0.24565333 -0.073920004 0.78400004 1.7632899e-38
-0.24416001 -0.073920004 0.78400004 1.7724734e-38
-0.24328572 -0.074108571 0.78600001 1.7816565e-38
-0.24117334 -0.073920004 0.78400004 1.7724726e-38
-0.23968001 -0.073920004 0.78400004 1.76329e-38
-0.2387943 -0.074108571 0.78600001 1.7724745e-38
-0.23669335 -0.073920004 0.78400004 1.7908402e-38
-0.23580001 -0.074108571 0.78600001 1.7724717e-38
-0.23430286 -0.074108571 0.78600001 1.7541053e-38
-0.23280571 -0.074108571 0.78600001 1.7632897e-38
-0.23130858 -0.074108571 0.78600001 1.772474e-38
-0.22981143 -0.074108571 0.78600001 1.7724748e-38
-0.2283143 -0.074108571 0.78600001 1.7816581e-38
-0.22681715 -0.074108571 0.78600001 1.7724743e-38
-0.22532 -0.074108571 0.78600001 1.763292e-38
-0.22382286 -0.074108571 0.78600001 1.7818398e-38
-0.22232571 -0.074108571 0.78600001 1.8000964e-38
-0.22082858 -0.074108571 0.78600001 1.3683949e-38
-0.21933143 -0.074108571 0.78600001 9.3676312e-39
-0.21783428 -0.074108571 0.78600001 7.5308722e-39
-0.21633714 -0.074108571 0.78600001 5.786002e-39
-0.21483999 -0.074108571 0.78600001 6.9802264e-39
-0.21334286 -0.074108571 0.78600001 8.2656277e-39
-0.21184571 -0.074108571 0.78600001 1.3240593e-38
-0.20981334 -0.073920004 0.78400004 1.8200771e-38
-0.20832001 -0.073920004 0.78400004 1.8385502e-38
-0.20682667 -0.073920004 0.78400004 1.8565946e-38
-0.2087381 -0.075145721 0.79700005 1.690968e-38
-0.20748 -0.075240009 0.79800004 1.5343438e-38
-0.20596001 -0.075240009 0.79800004 1.2673734e-38
-0.20444 -0.075240009 0.79800004 1.0013757e-38
-0.20342858 -0.075428575 0.80000001 1.3244166e-38
-0.20190476 -0.075428575 0.80000001 1.6551672e-38
-0.20034859 -0.07599429 0.80600005 1.5652706e-38
-0.19930667 -0.076182857 0.80800003 1.6677988e-38
-0.19776762 -0.076182857 0.80800003 1.7687444e-38
-0.19622858 -0.076182857 0.80800003 1.7595233e-38
-0.26055717 -0.073258102 0.79300004 1.7541772e-38
-0.25904667 -0.073258102 0.79300004 1.7449226e-38
-0.25688669 -0.073073328 0.79100001 1.7449228e-38
-0.25538 -0.073073328 0.79100001 1.7357395e-38
-0.25323144 -0.072888575 0.78900003 1.7357405e-38
-0.25172856 -0.072888575 0.78900003 1.7541086e-38
-0.2499086 -0.072796196 0.78800005 1.7724745e-38
-0.24840762 -0.072796196 0.78800005 1.7724734e-38
-0.24627998 -0.072611429 0.78600001 1.7632896e-38
-0.24478285 -0.072611429 0.78600001 1.772473e-38
-0.24328572 -0.072611429 0.78600001 1.7908397e-38
-0.24178858 -0.072611429 0.78600001 1.7724722e-38
-0.24029143 -0.072611429 0.78600001 1.7541066e-38
-0.2387943 -0.072611429 0.78600001 1.7632918e-38
-0.23729715 -0.072611429 0.78600001 1.772474e-38
-0.23430286 -0.072611429 0.78600001 1.7357388e-38
-0.23280571 -0.072611429 0.78600001 1.7541063e-38
-0.23189716 -0.072796196 0.78800005 1.7724747e-38
-0.22981143 -0.072611429 0.78600001 1.7816595e-38
-0.2283143 -0.072611429 0.78600001 1.7908422e-38
-0.22532 -0.072611429 0.78600001 1.7632917e-38
-0.22382286 -0.072611429 0.78600001 1.7818031e-38
-0.22232571 -0.072611429 0.78600001 1.8007047e-38
-0.22082858 -0.072611429 0.78600001 1.3683928e-38
-0.21933143 -0.072611429 0.78600001 9.4594555e-39
-0.21838859 -0.072796196 0.78800005 7.8982142e-39
-0.21633714 -0.072611429 0.78600001 6.4317161e-39
-0.21483999 -0.072611429 0.78600001 6.9809354e-39
-0.21334286 -0.072611429 0.78600001 7.6227806e-39
-0.21184571 -0.072611429 0.78600001 1.2965455e-38
-0.20981334 -0.072426669 0.78400004 1.8284723e-38
-0.20832001 -0.072426669 0.78400004 1.8285423e-38
-0.20682667 -0.072426669 0.78400004 1.8286146e-38
-0.2087381 -0.073627621 0.79700005 1.7459275e-38
-0.20722 -0.073627621 0.79700005 1.6629512e-38
-0.20596001 -0.073720008 0.79800004 1.3775781e-38
-0.20444 -0.073720008 0.79800004 1.0931046e-38
-0.20342858 -0.07390476 0.80000001 1.2869648e-38
-0.20190476 -0.07390476 0.80000001 1.489758e-38
-0.20034859 -0.074459054 0.80600005 1.6398194e-38
-0.19881335 -0.074459054 0.80600005 1.7693596e-38
-0.19622858 -0.074643806 0.80800003 1.8895338e-38
-0.25904667 -0.071747623 0.79300004 1.7541062e-38
-0.25688669 -0.071566671 0.79100001 1.7541062e-38
-0.25538 -0.071566671 0.79100001 1.7357392e-38
-0.25387335 -0.071566671 0.79100001 1.7265562e-38
-0.25236669 -0.071566671 0.79100001 1.7541073e-38
-0.25022572 -0.071385719 0.78900003 1.7908405e-38
-0.24840762 -0.071295246 0.78800005 1.7816561e-38
-0.24690668 -0.071295246 0.78800005 1.7724726e-38
-0.24540573 -0.071295246 0.78800005 1.7816561e-38
-0.24390477 -0.071295246 0.78800005 1.8000231e-38
-0.24178858 -0.071114287 0.78600001 1.7724724e-38
-0.24029143 -0.071114287 0.78600001 1.7541062e-38
-0.2387943 -0.071114287 0.78600001 1.754107e-38
-0.23729715 -0.071114287 0.78600001 1.7541065e-38
-0.23580001 -0.071114287 0.78600001 1.7357389e-38
-0.23430286 -0.071114287 0.78600001 1.7265551e-38
-0.23280571 -0.071114287 0.78600001 1.7449221e-38
-0.23189716 -0.071295246 0.78800005 1.7724738e-38
-0.22981143 -0.071114287 0.78600001 1.7908422e-38
-0.2283143 -0.071114287 0.78600001 1.809209e-38
-0.22681715 -0.071114287 0.78600001 1.7908416e-38
-0.22532 -0.071114287 0.78600001 1.7724752e-38
-0.22382286 -0.071114287 0.78600001 1.7817671e-38
-0.22232571 -0.071114287 0.78600001 1.8000588e-38
-0.22082858 -0.071114287 0.78600001 1.3775762e-38
-0.21933143 -0.071114287 0.78600001 9.6431251e-39
-0.21838859 -0.071295246 0.78800005 8.357749e-39
-0.21633714 -0.071114287 0.78600001 7.0745632e-39
-0.21483999 -0.071114287 0.78600001 7.0738471e-39
-0.21334286 -0.071114287 0.78600001 7.0717564e-39
-0.21238478 -0.071295246 0.78800005 1.2782481e-38
-0.21034856 -0.071114287 0.78600001 1.8468033e-38
-0.2087381 -0.072109528 0.79700005 1.800921e-38
-0.20748 -0.072200008 0.79800004 1.8007408e-38
-0.20596001 -0.072200008 0.79800004 1.487782e-38
-0.20444 -0.072200008 0.79800004 1.1848325e-38
-0.20342858 -0.072380953 0.80000001 1.2587312e-38
-0.20190476 -0.072380953 0.80000001 1.3332426e-38
-0.20034859 -0.072923817 0.80600005 1.7221853e-38
-0.19881335 -0.072923817 0.80600005 1.8709181e-38
-0.19776762 -0.073104762 0.80800003 2.0270748e-38
-0.25904667 -0.070237145 0.79300004 1.7541062e-38
-0.2575362 -0.070237145 0.79300004 1.7541062e-38
-0.25538 -0.07006 0.79100001 1.7449226e-38
-0.25387335 -0.07006 0.79100001 1.7357391e-38
-0.25236669 -0.07006 0.79100001 1.7541062e-38
-0.25022572 -0.069882862 0.78900003 1.7724724e-38
-0.24872285 -0.069882862 0.78900003 1.7724717e-38
-0.24690668 -0.06979429 0.78800005 1.7632885e-38
-0.24540573 -0.06979429 0.78800005 1.7724723e-38
-0.24390477 -0.06979429 0.78800005 1.781656e-38
-0.24240382 -0.06979429 0.78800005 1.7632892e-38
-0.24090287 -0.06979429 0.78800005 1.7449221e-38
-0.23940191 -0.06979429 0.78800005 1.7449222e-38
-0.23729715 -0.069617145 0.78600001 1.7541062e-38
-0.23640001 -0.06979429 0.78800005 1.7449231e-38
-0.23489906 -0.06979429 0.78800005 1.7357387e-38
-0.23339809 -0.06979429 0.78800005 1.7449215e-38
-0.23189716 -0.06979429 0.78800005 1.7632896e-38
-0.22981143 -0.069617145 0.78600001 1.7632907e-38
-0.2283143 -0.069617145 0.78600001 1.7724745e-38
-0.22681715 -0.069617145 0.78600001 1.7724748e-38
-0.22532 -0.069617145 0.78600001 1.7632917e-38
-0.22382286 -0.069617145 0.78600001 1.7909146e-38
-0.22232571 -0.069617145 0.78600001 1.8102826e-38
-0.22082858 -0.069617145 0.78600001 1.3960866e-38
-0.21988954 -0.06979429 0.78800005 9.8267961e-39
-0.21866572 -0.069882862 0.78900003 8.0818838e-39
-0.21688762 -0.06979429 0.78800005 6.4317147e-39
-0.21538669 -0.06979429 0.78800005 6.4313574e-39
-0.21388572 -0.06979429 0.78800005 6.4288981e-39
-0.21238478 -0.06979429 0.78800005 1.1943385e-38
-0.21088381 -0.06979429 0.78800005 1.7549678e-38
-0.20748 -0.07068 0.79800004 1.8466952e-38
-0.20596001 -0.07068 0.79800004 1.6258954e-38
-0.20444 -0.07068 0.79800004 1.4051659e-38
-0.20342858 -0.070857145 0.80000001 1.442652e-38
-0.20190476 -0.070857145 0.80000001 1.4797845e-38
-0.20034859 -0.07138858 0.80600005 1.6392474e-38
-0.19881335 -0.07138858 0.80600005 1.8155313e-38
-0.19727811 -0.07138858 0.80600005 1.9903431e-38
-0.26372001 -0.069159999 0.79800004 1.7724729e-38
-0.26220003 -0.069159999 0.79800004 1.7632895e-38
-0.2575362 -0.068726666 0.79300004 1.7632897e-38
-0.25602573 -0.068726666 0.79300004 1.754106e-38
-0.25387335 -0.068553336 0.79100001 1.7449225e-38
-0.25236669 -0.068553336 0.79100001 1.754106e-38
-0.25022572 -0.068380006 0.78900003 1.7632893e-38
-0.24872285 -0.068380006 0.78900003 1.7632892e-38
-0.24722002 -0.068380006 0.78900003 1.7632892e-38
-0.24571717 -0.068380006 0.78900003 1.763289e-38
-0.2442143 -0.068380006 0.78900003 1.7632896e-38
-0.24240382 -0.068293341 0.78800005 1.7449231e-38
-0.24120858 -0.068380006 0.78900003 1.735738e-38
-0.23970573 -0.068380006 0.78900003 1.74492e-38
-0.23790097 -0.068293341 0.78800005 1.7541058e-38
-0.23640001 -0.068293341 0.78800005 1.754108e-38
-0.23489906 -0.068293341 0.78800005 1.7541069e-38
-0.23339809 -0.068293341 0.78800005 1.7541059e-38
-0.23189716 -0.068293341 0.78800005 1.7541063e-38
-0.22981143 -0.068120003 0.78600001 1.7449233e-38
-0.2283143 -0.068120003 0.78600001 1.7449235e-38
-0.22681715 -0.068120003 0.78600001 1.7541073e-38
-0.22532 -0.068120003 0.78600001 1.7632909e-38
-0.22382286 -0.068120003 0.78600001 1.7908774e-38
-0.22232571 -0.068120003 0.78600001 1.8285427e-38
-0.22082858 -0.068120003 0.78600001 1.4146357e-38
-0.21988954 -0.068293341 0.78800005 1.001048e-38
-0.21866572 -0.068380006 0.78900003 7.8982128e-39
-0.21716286 -0.068380006 0.78900003 5.7877929e-39
-0.21566001 -0.068380006 0.78900003 5.789232e-39
-0.21415715 -0.068380006 0.78900003 5.786058e-39
-0.21265429 -0.068380006 0.78900003 1.120907e-38
-0.20748 -0.069159999 0.79800004 1.9016907e-38
-0.20596001 -0.069159999 0.79800004 1.7640097e-38
-0.20495237 -0.069333337 0.80000001 1.635583e-38
-0.20342858 -0.069333337 0.80000001 1.6357619e-38
-0.20138286 -0.069679998 0.80400002 1.6007877e-38
-0.20034859 -0.069853343 0.80600005 1.5657073e-38
-0.19930667 -0.070026666 0.80800003 1.76018e-38
-0.19776762 -0.070026666 0.80800003 1.9537164e-38
-0.19622858 -0.070026666 0.80800003 1.9351702e-38
-0.26372001 -0.067639999 0.79800004 1.7541077e-38
-0.26220003 -0.067639999 0.79800004 1.7632906e-38
-0.2575362 -0.067216195 0.79300004 1.7724733e-38
-0.25602573 -0.067216195 0.79300004 1.7632896e-38
-0.25387335 -0.067046665 0.79100001 1.7541059e-38
-0.25236669 -0.067046665 0.79100001 1.7541059e-38
-0.25022572 -0.066877142 0.78900003 1.7632899e-38
-0.24872285 -0.066877142 0.78900003 1.7632903e-38
-0.24722002 -0.066877142 0.78900003 1.7632899e-38
-0.24571717 -0.066877142 0.78900003 1.772473e-38
-0.24390477 -0.066792384 0.78800005 1.7816574e-38
-0.24240382 -0.066792384 0.78800005 1.7632913e-38
-0.24120858 -0.066877142 0.78900003 1.744921e-38
-0.23970573 -0.066877142 0.78900003 1.7449179e-38
-0.23790097 -0.066792384 0.78800005 1.7541055e-38
-0.23640001 -0.066792384 0.78800005 1.7541095e-38
-0.23489906 -0.066792384 0.78800005 1.7632917e-38
-0.23339809 -0.066792384 0.78800005 1.7541067e-38
-0.23189716 -0.066792384 0.78800005 1.7541067e-38
-0.22981143 -0.066622861 0.78600001 1.7541067e-38
-0.2283143 -0.066622861 0.78600001 1.7541067e-38
-0.2273943 -0.066792384 0.78800005 1.7632904e-38
-0.22589335 -0.066792384 0.78800005 1.781657e-38
-0.2243924 -0.066792384 0.78800005 1.8000595e-38
-0.22289144 -0.066792384 0.78800005 1.8192881e-38
-0.22139049 -0.066792384 0.78800005 1.51555e-38
-0.22016859 -0.066877142 0.78900003 1.212271e-38
-0.21716286 -0.066877142 0.78900003 5.9703919e-39
-0.21566001 -0.066877142 0.78900003 6.0618756e-39
-0.21415715 -0.066877142 0.78900003 6.1534098e-39
-0.21319333 -0.067046665 0.79100001 9.92231e-39
-0.21222191 -0.067216195 0.79300004 1.370193e-38
-0.21071143 -0.067216195 0.79300004 1.6179353e-38
-0.208 -0.06780953 0.80000001 1.8740343e-38
-0.2064762 -0.06780953 0.80000001 1.8101811e-38
-0.20495237 -0.06780953 0.80000001 1.7462194e-38
-0.20188382 -0.068318099 0.80600005 1.609289e-38
-0.20034859 -0.068318099 0.80600005 1.5197181e-38
-0.19930667 -0.068487622 0.80800003 1.7326304e-38
-0.19776762 -0.068487622 0.80800003 1.9538596e-38
-0.19622858 -0.068487622 0.80800003 1.9352045e-38
-0.26372001 -0.066119999 0.79800004 1.7449228e-38
-0.26220003 -0.066119999 0.79800004 1.7632896e-38
-0.2575362 -0.065705717 0.79300004 1.7816565e-38
-0.25602573 -0.065705717 0.79300004 1.7724731e-38
-0.25387335 -0.065540001 0.79100001 1.7632893e-38
-0.25236669 -0.065540001 0.79100001 1.763289e-38
-0.25086001 -0.065540001 0.79100001 1.7632895e-38
-0.24935335 -0.065540001 0.79100001 1.7632899e-38
-0.24722002 -0.065374292 0.78900003 1.7632897e-38
-0.24571717 -0.065374292 0.78900003 1.7816567e-38
-0.2442143 -0.065374292 0.78900003 1.8000243e-38
-0.24240382 -0.065291435 0.78800005 1.7816578e-38
-0.24090287 -0.065291435 0.78800005 1.7632887e-38
-0.23970573 -0.065374292 0.78900003 1.7541031e-38
-0.23790097 -0.065291435 0.78800005 1.7541056e-38
-0.23640001 -0.065291435 0.78800005 1.7632918e-38
-0.23489906 -0.065291435 0.78800005 1.7724745e-38
-0.23339809 -0.065291435 0.78800005 1.7632903e-38
-0.23189716 -0.065291435 0.78800005 1.7541069e-38
-0.2303962 -0.065291435 0.78800005 1.754107e-38
-0.2283143 -0.065125719 0.78600001 1.7632906e-38
-0.2273943 -0.065291435 0.78800005 1.7816577e-38
-0.22589335 -0.065291435 0.78800005 1.8092078e-38
-0.2243924 -0.065291435 0.78800005 1.8092789e-38
-0.22289144 -0.065291435 0.78800005 1.8184632e-38
-0.22139049 -0.065291435 0.78800005 1.6164617e-38
-0.22016859 -0.065374292 0.78900003 1.4235287e-38
-0.21922 -0.065540001 0.79100001 1.01941e-38
-0.21716286 -0.065374292 0.78900003 6.1537153e-39
-0.21566001 -0.065374292 0.78900003 6.3391982e-39
-0.21415715 -0.065374292 0.78900003 6.5232573e-39
-0.21319333 -0.065540001 0.79100001 8.6358619e-39
-0.21168666 -0.065540001 0.79100001 1.0754933e-38
-0.208 -0.066285715 0.80000001 1.847166e-38
-0.2064762 -0.066285715 0.80000001 1.8471657e-38
-0.20495237 -0.066285715 0.80000001 1.8567083e-38
-0.2049543 -0.066782854 0.80600005 1.8110778e-38
-0.20341906 -0.066782854 0.80600005 1.7742344e-38
-0.20238477 -0.066948578 0.80800003 1.6178257e-38
-0.20084572 -0.066948578 0.80800003 1.4735484e-38
-0.19930667 -0.066948578 0.80800003 1.7142629e-38
-0.19776762 -0.066948578 0.80800003 1.9629352e-38
-0.19622858 -0.066948578 0.80800003 1.9352401e-38
-0.26372001 -0.064599998 0.79800004 1.735738e-38
-0.26220003 -0.064599998 0.79800004 1.7541052e-38
-0.2575362 -0.064195246 0.79300004 1.7632892e-38
-0.25602573 -0.064195246 0.79300004 1.7632896e-38
-0.25451526 -0.064195246 0.79300004 1.7541056e-38
-0.25236669 -0.064033337 0.79100001 1.7541052e-38
-0.25086001 -0.064033337 0.79100001 1.7541055e-38
-0.24872285 -0.063871428 0.78900003 1.7541059e-38
-0.24722002 -0.063871428 0.78900003 1.754106e-38
-0.24571717 -0.063871428 0.78900003 1.7541063e-38
-0.24390477 -0.063790478 0.78800005 1.76329e-38
-0.24240382 -0.063790478 0.78800005 1.7632903e-38
-0.24090287 -0.063790478 0.78800005 1.7632893e-38
-0.23940191 -0.063790478 0.78800005 1.7541049e-38
-0.23790097 -0.063790478 0.78800005 1.7541059e-38
-0.23640001 -0.063790478 0.78800005 1.754107e-38
-0.23489906 -0.063790478 0.78800005 1.7541069e-38
-0.23339809 -0.063790478 0.78800005 1.7449232e-38
-0.23189716 -0.063790478 0.78800005 1.7357399e-38
-0.2303962 -0.063790478 0.78800005 1.7449238e-38
-0.2283143 -0.063628569 0.78600001 1.7541073e-38
-0.22681715 -0.063628569 0.78600001 1.7724744e-38
-0.22589335 -0.063790478 0.78800005 1.7816573e-38
-0.2243924 -0.063790478 0.78800005 1.7908761e-38
-0.22317429 -0.063871428 0.78900003 1.8000964e-38
-0.22167143 -0.063871428 0.78900003 1.6808546e-38
-0.22016859 -0.063871428 0.78900003 1.5616409e-38
-0.21922 -0.064033337 0.79100001 1.102062e-38
-0.21771333 -0.064033337 0.79100001 6.4288743e-39
-0.21620667 -0.064033337 0.79100001 6.7973233e-39
-0.2147 -0.064033337 0.79100001 7.168254e-39
-0.21373239 -0.064195246 0.79300004 7.809669e-39
-0.21222191 -0.064195246 0.79300004 8.4493491e-39
-0.21071143 -0.064195246 0.79300004 1.1950639e-38
-0.208 -0.064761907 0.80000001 1.8017153e-38
-0.2064762 -0.064761907 0.80000001 1.8017854e-38
-0.20546477 -0.064923815 0.80200005 1.8110768e-38
-0.2049543 -0.065247618 0.80600005 1.6640686e-38
-0.20341906 -0.065247618 0.80600005 1.5170583e-38
-0.20238477 -0.065409526 0.80800003 1.4426197e-38
-0.20084572 -0.065409526 0.80800003 1.3722776e-38
-0.19930667 -0.065409526 0.80800003 1.6590896e-38
-0.19776762 -0.065409526 0.80800003 1.9536438e-38
-0.19622858 -0.065409526 0.80800003 1.9168729e-38
-0.26372001 -0.063079998 0.79800004 1.7357382e-38
-0.26220003 -0.063079998 0.79800004 1.7449217e-38
-0.25818571 -0.062842853 0.79500002 1.7541059e-38
-0.25667143 -0.062842853 0.79500002 1.7541066e-38
-0.25451526 -0.062684759 0.79300004 1.7541058e-38
-0.25300479 -0.062684759 0.79300004 1.7541049e-38
-0.25086001 -0.062526666 0.79100001 1.7541055e-38
-0.24872285 -0.062368572 0.78900003 1.754106e-38
-0.24722002 -0.062368572 0.78900003 1.7541063e-38
-0.24571717 -0.062368572 0.78900003 1.7357395e-38
-0.24390477 -0.062289529 0.78800005 1.7265564e-38
-0.24240382 -0.062289529 0.78800005 1.744924e-38
-0.24090287 -0.062289529 0.78800005 1.7632897e-38
-0.23940191 -0.062289529 0.78800005 1.7632883e-38
-0.23790097 -0.062289529 0.78800005 1.7632892e-38
-0.23640001 -0.062289529 0.78800005 1.7541063e-38
-0.23489906 -0.062289529 0.78800005 1.7449228e-38
-0.23339809 -0.062289529 0.78800005 1.7357394e-38
-0.23189716 -0.062289529 0.78800005 1.7265562e-38
-0.2303962 -0.062289529 0.78800005 1.7357403e-38
-0.22889525 -0.062289529 0.78800005 1.7541076e-38
-0.2273943 -0.062289529 0.78800005 1.7541079e-38
-0.22589335 -0.062289529 0.78800005 1.7632904e-38
-0.2243924 -0.062289529 0.78800005 1.7724731e-38
-0.22317429 -0.062368572 0.78900003 1.7817291e-38
-0.22167143 -0.062368572 0.78900003 1.7453904e-38
-0.22072667 -0.062526666 0.79100001 1.7087602e-38
-0.21922 -0.062526666 0.79100001 1.1847204e-38
-0.21771333 -0.062526666 0.79100001 6.7044046e-39
-0.21675335 -0.062684759 0.79300004 7.2557651e-39
-0.21524286 -0.062684759 0.79300004 7.8100165e-39
-0.21373239 -0.062684759 0.79300004 6.9838656e-39
-0.21275714 -0.062842853 0.79500002 6.2502816e-39
-0.21124287 -0.062842853 0.79500002 9.1901175e-39
-0.2102562 -0.063000955 0.79700005 1.2131398e-38
-0.2087381 -0.063000955 0.79700005 1.4902998e-38
-0.208 -0.063238099 0.80000001 1.7658416e-38
-0.20699239 -0.063396193 0.80200005 1.7658771e-38
-0.20546477 -0.063396193 0.80200005 1.7646564e-38
-0.2049543 -0.063712381 0.80600005 1.5168072e-38
-0.20341906 -0.063712381 0.80600005 1.2681331e-38
-0.20238477 -0.063870475 0.80800003 1.2674146e-38
-0.20084572 -0.063870475 0.80800003 1.2711864e-38
-0.19930667 -0.063870475 0.80800003 1.6039514e-38
-0.19776762 -0.063870475 0.80800003 1.9444601e-38
-0.25451526 -0.061174288 0.79300004 1.7541059e-38
-0.25236669 -0.061019998 0.79100001 1.7541046e-38
-0.25086001 -0.061019998 0.79100001 1.7541055e-38
-0.24872285 -0.060865719 0.78900003 1.7541063e-38
-0.24722002 -0.060865719 0.78900003 1.7541066e-38
-0.24571717 -0.060865719 0.78900003 1.7449235e-38
-0.24390477 -0.060788572 0.78800005 1.7357406e-38
-0.24240382 -0.060788572 0.78800005 1.7541084e-38
-0.24090287 -0.060788572 0.78800005 1.7724737e-38
-0.23940191 -0.060788572 0.78800005 1.7632883e-38
-0.23790097 -0.060788572 0.78800005 1.7632887e-38
-0.23640001 -0.060788572 0.78800005 1.7541058e-38
-0.23489906 -0.060788572 0.78800005 1.7449224e-38
-0.23339809 -0.060788572 0.78800005 1.7357391e-38
-0.23219143 -0.060865719 0.78900003 1.7357398e-38
-0.2303962 -0.060788572 0.78800005 1.7449242e-38
-0.22918572 -0.060865719 0.78900003 1.754108e-38
-0.22768287 -0.060865719 0.78900003 1.7541084e-38
-0.22618002 -0.060865719 0.78900003 1.7632907e-38
-0.22524667 -0.061019998 0.79100001 1.7724731e-38
-0.22374 -0.061019998 0.79100001 1.7909127e-38
-0.22279525 -0.061174288 0.79300004 1.7635421e-38
-0.22128478 -0.061174288 0.79300004 1.7365293e-38
-0.21977429 -0.061174288 0.79300004 1.3959845e-38
-0.21826382 -0.061174288 0.79300004 1.0561519e-38
-0.21730001 -0.061328575 0.79500002 8.5410865e-39
-0.21578573 -0.061328575 0.79500002 6.6154278e-39
-0.21427143 -0.061328575 0.79500002 6.799117e-39
-0.21275714 -0.061328575 0.79500002 7.0749696e-39
-0.21177429 -0.061482862 0.79700005 8.2706121e-39
-0.2102562 -0.061482862 0.79700005 9.5517072e-39
-0.20952381 -0.061714288 0.80000001 1.0934325e-38
-0.208 -0.061714288 0.80000001 1.2225051e-38
-0.2064762 -0.061714288 0.80000001 1.2316178e-38
-0.20546477 -0.061868574 0.80200005 1.2499109e-38
-0.20341906 -0.062177144 0.80600005 1.0011636e-38
-0.20188382 -0.062177144 0.80600005 1.1665749e-38
-0.20084572 -0.062331434 0.80800003 1.3353989e-38
-0.19930667 -0.062331434 0.80800003 1.6406489e-38
-0.26372001 -0.060040005 0.79800004 1.7265911e-38
-0.26068002 -0.060040005 0.79800004 1.7357387e-38
-0.25883526 -0.059964765 0.79700005 1.7449228e-38
-0.25667143 -0.059814285 0.79500002 1.7449233e-38
-0.25086001 -0.059513334 0.79100001 1.7541065e-38
-0.24872285 -0.059362859 0.78900003 1.7541073e-38
-0.24722002 -0.059362859 0.78900003 1.7541072e-38
-0.24571717 -0.059362859 0.78900003 1.754107e-38
-0.2442143 -0.059362859 0.78900003 1.7541073e-38
-0.24240382 -0.059287623 0.78800005 1.7632913e-38
-0.24090287 -0.059287623 0.78800005 1.7816571e-38
-0.23940191 -0.059287623 0.78800005 1.7724724e-38
-0.23790097 -0.059287623 0.78800005 1.763289e-38
-0.23640001 -0.059287623 0.78800005 1.7541058e-38
-0.23489906 -0.059287623 0.78800005 1.7449221e-38
