# .PCD v0.7 - Point Cloud Data file format
VERSION 0.7
FIELDS x y z rgb
SIZE 4 4 4 4
TYPE F F F F
COUNT 1 1 1 1
WIDTH 1049
HEIGHT 1
VIEWPOINT 0 0 0 1 0 0 0
POINTS 1049
DATA ascii
0.60931247 -0.27632955 1.2140001 1.7229451e-38
0.42089143 -0.29252571 1.296 1.2911502e-38
0.42336002 -0.29252571 1.296 1.4759451e-38
0.42582858 -0.29252571 1.296 1.7156979e-38
0.42829713 -0.29252571 1.296 1.9646235e-38
0.42910379 -0.29139715 1.291 1.9450381e-38
0.43156284 -0.29139715 1.291 1.9258415e-38
0.43267718 -0.29049429 1.2870001 1.7873305e-38
0.43512857 -0.29049429 1.2870001 1.6402877e-38
0.43758002 -0.29049429 1.2870001 1.6588716e-38
0.43832195 -0.28936574 1.2820001 1.6863507e-38
0.44248289 -0.29049429 1.2870001 1.704754e-38
0.44493431 -0.29049429 1.2870001 1.732376e-38
0.44738573 -0.29049429 1.2870001 1.7784727e-38
0.44983715 -0.29049429 1.2870001 1.8345104e-38
0.45228857 -0.29049429 1.2870001 1.9081263e-38
0.46038857 -0.29252571 1.296 1.990993e-38
0.46285713 -0.29252571 1.296 1.9910999e-38
0.46353048 -0.29139715 1.291 1.9542576e-38
0.49379241 -0.29478288 1.3060001 1.1346162e-38
0.49628004 -0.29478288 1.3060001 1.428273e-38
0.49876767 -0.29478288 1.3060001 1.0048957e-38
0.50125527 -0.29478288 1.3060001 5.8836571e-39
0.49742192 -0.28823715 1.2770001 3.6803128e-39
0.49874669 -0.28620571 1.268 1.0239839e-38
0.49918574 -0.28507712 1.263 1.3268242e-38
0.50159144 -0.28507712 1.263 1.4188377e-38
0.50240093 -0.28417429 1.2590001 1.5111067e-38
0.50279433 -0.28304574 1.2540001 1.6406124e-38
0.50518286 -0.28304574 1.2540001 1.7691823e-38
0.50554764 -0.28191715 1.2490001 1.7599632e-38
0.5079267 -0.28191715 1.2490001 1.7599647e-38
0.51030576 -0.28191715 1.2490001 1.7600023e-38
0.50899047 -0.27988571 1.24 1.7600009e-38
0.51135236 -0.27988571 1.24 1.7691832e-38
0.51205719 -0.27898285 1.2360001 1.7784387e-38
0.51441145 -0.27898285 1.2360001 1.7876585e-38
0.51676571 -0.27898285 1.2360001 1.7970579e-38
0.51912004 -0.27898285 1.2360001 1.8061706e-38
0.51978672 -0.27808005 1.2320001 1.8150649e-38
0.52213335 -0.27808005 1.2320001 1.8150987e-38
0.52448004 -0.27808005 1.2320001 1.8243552e-38
0.52682668 -0.27808005 1.2320001 1.8243925e-38
0.52702576 -0.27695146 1.2270001 1.8245004e-38
0.52936292 -0.27695146 1.2270001 1.8152813e-38
0.52996671 -0.27604857 1.223 1.8153529e-38
0.53229618 -0.27604857 1.223 1.8245364e-38
0.53462571 -0.27604857 1.223 1.8337563e-38
0.5369553 -0.27604857 1.223 1.8337208e-38
0.53928477 -0.27604857 1.223 1.8429048e-38
0.53984284 -0.27514574 1.2190001 1.842977e-38
0.5421648 -0.27514574 1.2190001 1.8430847e-38
0.5444867 -0.27514574 1.2190001 1.8431209e-38
0.5445658 -0.27401716 1.2140001 1.8431566e-38
0.54687816 -0.27401716 1.2140001 1.8523401e-38
0.54919052 -0.27401716 1.2140001 1.870707e-38
0.55150288 -0.27401716 1.2140001 1.8798902e-38
0.55381525 -0.27401716 1.2140001 1.8890009e-38
0.55612761 -0.27401716 1.2140001 1.8890717e-38
0.55659997 -0.27311429 1.21 1.8891455e-38
0.55890477 -0.27311429 1.21 1.8983672e-38
0.56120956 -0.27311429 1.21 1.9076921e-38
0.56351429 -0.27311429 1.21 1.9259497e-38
0.56581908 -0.27311429 1.21 1.9442105e-38
0.56624573 -0.27221143 1.2060001 1.9351361e-38
0.5685429 -0.27221143 1.2060001 1.9169127e-38
0.57084 -0.27221143 1.2060001 1.935244e-38
0.57503814 -0.27311429 1.21 1.9443916e-38
0.57734287 -0.27311429 1.21 1.9536826e-38
0.57773149 -0.27221143 1.2060001 1.963082e-38
0.58002859 -0.27221143 1.2060001 1.9537196e-38
0.5823257 -0.27221143 1.2060001 1.9537193e-38
0.58462292 -0.27221143 1.2060001 1.9630821e-38
0.58692002 -0.27221143 1.2060001 1.9724459e-38
0.58921719 -0.27221143 1.2060001 1.8985119e-38
0.59347624 -0.27311429 1.21 1.8338646e-38
0.59578097 -0.27311429 1.21 1.7600697e-38
0.5980857 -0.27311429 1.21 1.6954987e-38
0.60237533 -0.27401716 1.2140001 1.704719e-38
0.60468769 -0.27401716 1.2140001 1.7231582e-38
0.60700005 -0.27401716 1.2140001 1.7230869e-38
0.60931247 -0.27401716 1.2140001 1.723015e-38
0.42003718 -0.2911762 1.3010001 1.6214122e-38
0.42089143 -0.29005712 1.296 1.7887618e-38
0.42336002 -0.29005712 1.296 1.9534252e-38
0.42582858 -0.29005712 1.296 1.9821291e-38
0.42664474 -0.28893811 1.291 2.0094293e-38
0.42910379 -0.28893811 1.291 1.94493e-38
0.43022573 -0.28804287 1.2870001 1.8888918e-38
0.43267718 -0.28804287 1.2870001 1.7782905e-38
0.43512857 -0.28804287 1.2870001 1.6680537e-38
0.44003144 -0.28804287 1.2870001 1.6588718e-38
0.44248289 -0.28804287 1.2870001 1.6680911e-38
0.44493431 -0.28804287 1.2870001 1.6864581e-38
0.44738573 -0.28804287 1.2870001 1.7324116e-38
0.45123523 -0.28893811 1.291 1.7879457e-38
0.45369428 -0.28893811 1.291 1.7975981e-38
0.45615333 -0.28893811 1.291 1.8159292e-38
0.46038857 -0.29005712 1.296 1.7975263e-38
0.46285713 -0.29005712 1.296 1.7788716e-38
0.46353048 -0.28893811 1.291 1.7602527e-38
0.49318573 -0.29341429 1.3110001 1.0970532e-38
0.49818003 -0.29341429 1.3110001 1.3361471e-38
0.50125527 -0.29229528 1.3060001 1.5644853e-39
0.49874669 -0.28379047 1.268 1.0240199e-38
0.49918574 -0.28267142 1.263 1.3084214e-38
0.50000292 -0.28177622 1.2590001 1.4188378e-38
0.50240093 -0.28177622 1.2590001 1.5297252e-38
0.50279433 -0.28065714 1.2540001 1.6499039e-38
0.50518286 -0.28065714 1.2540001 1.7691822e-38
0.50757146 -0.28065714 1.2540001 1.7599625e-38
0.5079267 -0.27953809 1.2490001 1.7599635e-38
0.51030576 -0.27953809 1.2490001 1.7600003e-38
0.51135236 -0.27752382 1.24 1.7599991e-38
0.51205719 -0.27662858 1.2360001 1.7600352e-38
0.51441145 -0.27662858 1.2360001 1.7692908e-38
0.51676571 -0.27662858 1.2360001 1.7876586e-38
0.51912004 -0.27662858 1.2360001 1.796843e-38
0.51978672 -0.27573335 1.2320001 1.8060253e-38
0.52213335 -0.27573335 1.2320001 1.8152077e-38
0.52448004 -0.27573335 1.2320001 1.8243568e-38
0.5246886 -0.2746143 1.2270001 1.8152824e-38
0.52702576 -0.2746143 1.2270001 1.8060983e-38
0.52936292 -0.2746143 1.2270001 1.8060977e-38
0.52996671 -0.27371904 1.223 1.8061336e-38
0.53229618 -0.27371904 1.223 1.815353e-38
0.53287721 -0.27282384 1.2190001 1.8245367e-38
0.53519911 -0.27282384 1.2190001 1.8246086e-38
0.537521 -0.27282384 1.2190001 1.8337567e-38
0.53984284 -0.27282384 1.2190001 1.833757e-38
0.5421648 -0.27282384 1.2190001 1.8429767e-38
0.54225338 -0.27170479 1.2140001 1.8246816e-38
0.5445658 -0.27170479 1.2140001 1.8155338e-38
0.54687816 -0.27170479 1.2140001 1.8339366e-38
0.54919052 -0.27170479 1.2140001 1.8614873e-38
0.55150288 -0.27170479 1.2140001 1.8707065e-38
0.55381525 -0.27170479 1.2140001 1.8890015e-38
0.55612761 -0.27170479 1.2140001 1.8798175e-38
0.55844003 -0.27170479 1.2140001 1.8799261e-38
0.56075239 -0.27170479 1.2140001 1.8892543e-38
0.56120956 -0.27080953 1.21 1.9075485e-38
0.56351429 -0.27080953 1.21 1.9349904e-38
0.56581908 -0.27080953 1.21 1.9625419e-38
0.56624573 -0.26991433 1.2060001 1.9350281e-38
0.5685429 -0.26991433 1.2060001 1.9168405e-38
0.57084 -0.26991433 1.2060001 1.9260601e-38
0.57503814 -0.27080953 1.21 1.9352079e-38
0.57734287 -0.27080953 1.21 1.9444993e-38
0.5796476 -0.27080953 1.21 1.9536472e-38
0.58195239 -0.27080953 1.21 1.9444639e-38
0.58425719 -0.27080953 1.21 1.9354241e-38
0.58462292 -0.26991433 1.2060001 1.9538993e-38
0.58886665 -0.27080953 1.21 1.9719057e-38
0.59117144 -0.27080953 1.21 1.8062412e-38
0.59347624 -0.27080953 1.21 1.6499049e-38
0.59578097 -0.27080953 1.21 1.6309992e-38
0.5980857 -0.27080953 1.21 1.6220313e-38
0.60237533 -0.27170479 1.2140001 1.6680928e-38
0.60468769 -0.27170479 1.2140001 1.7231944e-38
0.60700005 -0.27170479 1.2140001 1.7231947e-38
0.60931247 -0.27170479 1.2140001 1.7322703e-38
0.38830575 -0.29091716 1.3110001 1.3178094e-38
0.39080289 -0.29091716 1.3110001 1.5203556e-38
0.39330003 -0.29091716 1.3110001 1.722928e-38
0.40423813 -0.28980765 1.3060001 1.5768285e-38
0.41667622 -0.28980765 1.3060001 1.7415281e-38
0.41916385 -0.28980765 1.3060001 1.5762588e-38
0.42582858 -0.28758857 1.296 1.8248974e-38
0.42664474 -0.28647906 1.291 1.8433721e-38
0.42777431 -0.28559142 1.2870001 1.8247182e-38
0.43022573 -0.28559142 1.2870001 1.8060602e-38
0.43267718 -0.28559142 1.2870001 1.732301e-38
0.43512857 -0.28559142 1.2870001 1.6681257e-38
0.43758002 -0.28559142 1.2870001 1.658729e-38
0.44003144 -0.28559142 1.2870001 1.6493296e-38
0.44248289 -0.28559142 1.2870001 1.6588354e-38
0.44493431 -0.28559142 1.2870001 1.6772385e-38
0.44877619 -0.28647906 1.291 1.6681629e-38
0.45123523 -0.28647906 1.291 1.6499044e-38
0.45369428 -0.28647906 1.291 1.6404707e-38
0.45615333 -0.28647906 1.291 1.6218526e-38
0.46038857 -0.28758857 1.296 1.5849751e-38
0.46285713 -0.28758857 1.296 1.5480967e-38
0.46353048 -0.28647906 1.291 1.5112184e-38
0.49068859 -0.29091716 1.3110001 1.0051131e-38
0.49318573 -0.29091716 1.3110001 1.2354537e-38
0.4956829 -0.29091716 1.3110001 1.2350577e-38
0.49818003 -0.29091716 1.3110001 1.2440209e-38
0.50067717 -0.29091716 1.3110001 6.9081478e-39
0.50125527 -0.28980765 1.3060001 1.3779108e-39
0.49633142 -0.28137523 1.268 8.2979892e-39
0.49874669 -0.28137523 1.268 1.0698662e-38
0.49918574 -0.28026569 1.263 1.3176052e-38
0.50000292 -0.27937812 1.2590001 1.4466756e-38
0.50240093 -0.27937812 1.2590001 1.5667108e-38
0.50279433 -0.27826858 1.2540001 1.659052e-38
0.50518286 -0.27826858 1.2540001 1.7599985e-38
0.50757146 -0.27826858 1.2540001 1.7598902e-38
0.5079267 -0.27715907 1.2490001 1.7598546e-38
0.51030576 -0.27715907 1.2490001 1.7507431e-38
0.51135236 -0.27516192 1.24 1.750815e-38
0.51205719 -0.27427429 1.2360001 1.7508511e-38
0.51441145 -0.27427429 1.2360001 1.7599992e-38
0.51676571 -0.27427429 1.2360001 1.7691835e-38
0.51912004 -0.27427429 1.2360001 1.7783677e-38
0.51978672 -0.27338669 1.2320001 1.7967345e-38
0.52213335 -0.27338669 1.2320001 1.7967703e-38
0.52448004 -0.27338669 1.2320001 1.8059912e-38
0.52682668 -0.27338669 1.2320001 1.7968811e-38
0.52702576 -0.27227715 1.2270001 1.7969156e-38
0.52936292 -0.27227715 1.2270001 1.7968783e-38
0.53170002 -0.27227715 1.2270001 1.806062e-38
0.53229618 -0.27138954 1.223 1.806098e-38
0.53462571 -0.27138954 1.223 1.8153173e-38
0.53519911 -0.27050194 1.2190001 1.8245366e-38
0.537521 -0.27050194 1.2190001 1.8246086e-38
0.53984284 -0.27050194 1.2190001 1.8429401e-38
0.5421648 -0.27050194 1.2190001 1.8521239e-38
0.5444867 -0.27050194 1.2190001 1.833793e-38
0.5468086 -0.27050194 1.2190001 1.824681e-38
0.54687816 -0.2693924 1.2140001 1.8338644e-38
0.54919052 -0.2693924 1.2140001 1.8522676e-38
0.55150288 -0.2693924 1.2140001 1.8614512e-38
0.55381525 -0.2693924 1.2140001 1.8706349e-38
0.55612761 -0.2693924 1.2140001 1.8614874e-38
0.55844003 -0.2693924 1.2140001 1.861559e-38
0.56075239 -0.2693924 1.2140001 1.8799979e-38
0.56120956 -0.26850477 1.21 1.8891453e-38
0.56351429 -0.26850477 1.21 1.9074763e-38
0.56581908 -0.26850477 1.21 1.925772e-38
0.56624573 -0.26761717 1.2060001 1.907477e-38
0.57042855 -0.26850477 1.21 1.8800341e-38
0.57084 -0.26761717 1.2060001 1.8984015e-38
0.57503814 -0.26850477 1.21 1.916769e-38
0.57734287 -0.26850477 1.21 1.9259532e-38
0.5796476 -0.26850477 1.21 1.9351366e-38
0.58195239 -0.26850477 1.21 1.9260605e-38
0.58425719 -0.26850477 1.21 1.9263125e-38
0.58462292 -0.26761717 1.2060001 1.870961e-38
0.58886665 -0.26850477 1.21 1.8152453e-38
0.59117144 -0.26850477 1.21 1.7507764e-38
0.59347624 -0.26850477 1.21 1.677167e-38
0.59578097 -0.26850477 1.21 1.6587666e-38
0.5980857 -0.26850477 1.21 1.6495829e-38
0.60237533 -0.2693924 1.2140001 1.6771334e-38
0.60468769 -0.2693924 1.2140001 1.7138678e-38
0.60700005 -0.2693924 1.2140001 1.713832e-38
0.36941144 -0.28732002 1.3060001 1.3916076e-38
0.3718991 -0.28732002 1.3060001 1.4374536e-38
0.3743867 -0.28732002 1.3060001 1.4190508e-38
0.38081431 -0.28842002 1.3110001 1.3549064e-38
0.38331145 -0.28842002 1.3110001 1.3089184e-38
0.38580859 -0.28842002 1.3110001 1.4925552e-38
0.38830575 -0.28842002 1.3110001 1.6865619e-38
0.39080289 -0.28842002 1.3110001 1.954073e-38
0.39330003 -0.28842002 1.3110001 2.2210031e-38
0.39428765 -0.28732002 1.3060001 2.2583447e-38
0.39926291 -0.28732002 1.3060001 2.2768995e-38
0.4017505 -0.28732002 1.3060001 2.256735e-38
0.40423813 -0.28732002 1.3060001 1.6954226e-38
0.40764672 -0.28622004 1.3010001 1.1509412e-38
0.41012481 -0.28622004 1.3010001 1.1719299e-38
0.41755909 -0.28622004 1.3010001 1.455145e-38
0.42003718 -0.28622004 1.3010001 1.1990855e-38
0.42336002 -0.28512001 1.296 1.6866401e-38
0.42582858 -0.28512001 1.296 1.6771673e-38
0.42664474 -0.28402001 1.291 1.6774921e-38
0.42777431 -0.28314003 1.2870001 1.6962199e-38
0.43022573 -0.28314003 1.2870001 1.7231217e-38
0.43267718 -0.28314003 1.2870001 1.6954962e-38
0.43512857 -0.28314003 1.2870001 1.6769148e-38
0.43758002 -0.28314003 1.2870001 1.6583693e-38
0.44003144 -0.28314003 1.2870001 1.6402885e-38
0.44248289 -0.28314003 1.2870001 1.6587984e-38
0.44631714 -0.28402001 1.291 1.6772737e-38
0.44877619 -0.28402001 1.291 1.5942636e-38
0.45123523 -0.28402001 1.291 1.5206518e-38
0.45369428 -0.28402001 1.291 1.4746266e-38
0.45615333 -0.28402001 1.291 1.4377482e-38
0.46038857 -0.28512001 1.296 1.3825384e-38
0.46107143 -0.28402001 1.291 1.3268246e-38
0.46353048 -0.28402001 1.291 1.2711467e-38
0.46598953 -0.28402001 1.291 1.2251565e-38
0.46844858 -0.28402001 1.291 1.2342675e-38
0.49068859 -0.28842002 1.3110001 1.3637357e-38
0.49318573 -0.28842002 1.3110001 1.3819584e-38
0.49818003 -0.28842002 1.3110001 1.1515385e-38
0.49876767 -0.28732002 1.3060001 6.3470721e-39
0.50125527 -0.28732002 1.3060001 1.2864256e-39
0.49795711 -0.28402001 1.291 9.187165e-40
0.50041622 -0.28402001 1.291 6.4326746e-40
0.49760479 -0.27698001 1.2590001 1.3359004e-38
0.50000292 -0.27698001 1.2590001 1.4745146e-38
0.50040573 -0.27588001 1.2540001 1.6124499e-38
0.50279433 -0.27588001 1.2540001 1.677419e-38
0.50518286 -0.27588001 1.2540001 1.7507433e-38
0.50554764 -0.27478001 1.2490001 1.7598547e-38
0.5079267 -0.27478001 1.2490001 1.7690383e-38
0.5086714 -0.2739 1.245 1.7506712e-38
0.50899047 -0.2728 1.24 1.7416311e-38
0.50970292 -0.27192003 1.2360001 1.7416311e-38
0.51205719 -0.27192003 1.2360001 1.7416314e-38
0.51441145 -0.27192003 1.2360001 1.7508152e-38
0.51676571 -0.27192003 1.2360001 1.7599632e-38
0.51912004 -0.27192003 1.2360001 1.7691472e-38
0.51978672 -0.27104002 1.2320001 1.7875144e-38
0.52213335 -0.27104002 1.2320001 1.7875145e-38
0.52448004 -0.27104002 1.2320001 1.7968065e-38
0.52682668 -0.27104002 1.2320001 1.7876599e-38
0.52702576 -0.26994005 1.2270001 1.7876592e-38
0.52936292 -0.26994005 1.2270001 1.796878e-38
0.53170002 -0.26994005 1.2270001 1.8060616e-38
0.53403723 -0.26994005 1.2270001 1.8060616e-38
0.53462571 -0.26905999 1.223 1.8152804e-38
0.5369553 -0.26905999 1.223 1.8153159e-38
0.537521 -0.26818001 1.2190001 1.824464e-38
0.53984284 -0.26818001 1.2190001 1.8428316e-38
0.5421648 -0.26818001 1.2190001 1.8704545e-38
0.5468086 -0.26818001 1.2190001 1.833864e-38
0.54687816 -0.26708001 1.2140001 1.833864e-38
0.54919052 -0.26708001 1.2140001 1.8430477e-38
0.55150288 -0.26708001 1.2140001 1.843048e-38
0.55381525 -0.26708001 1.2140001 1.8522674e-38
0.55612761 -0.26708001 1.2140001 1.8523393e-38
0.55844003 -0.26708001 1.2140001 1.8523394e-38
0.56075239 -0.26708001 1.2140001 1.8616668e-38
0.56306481 -0.26708001 1.2140001 1.8799979e-38
0.56351429 -0.26620001 1.21 1.8891454e-38
0.56581908 -0.26620001 1.21 1.8982573e-38
0.56812382 -0.26620001 1.21 1.8707786e-38
0.57042855 -0.26620001 1.21 1.8524476e-38
0.57273334 -0.26620001 1.21 1.8800344e-38
0.57734287 -0.26620001 1.21 1.9075499e-38
0.5796476 -0.26620001 1.21 1.9167693e-38
0.58195239 -0.26620001 1.21 1.9168411e-38
0.58425719 -0.26620001 1.21 1.9167332e-38
0.58656192 -0.26620001 1.21 1.7880556e-38
0.58886665 -0.26620001 1.21 1.6679499e-38
0.59117144 -0.26620001 1.21 1.6861714e-38
0.59347624 -0.26620001 1.21 1.7137945e-38
0.59578097 -0.26620001 1.21 1.6955e-38
0.60006291 -0.26708001 1.2140001 1.6770973e-38
0.60237533 -0.26708001 1.2140001 1.6862452e-38
0.60468769 -0.26708001 1.2140001 1.7046123e-38
0.36692384 -0.28483242 1.3060001 1.2812665e-38
0.36941144 -0.28483242 1.3060001 1.2721188e-38
0.3743867 -0.28483242 1.3060001 1.2354233e-38
0.37831718 -0.28592288 1.3110001 1.2170541e-38
0.38081431 -0.28592288 1.3110001 1.1800666e-38
0.38331145 -0.28592288 1.3110001 1.1430862e-38
0.38682482 -0.28483242 1.3060001 1.4948309e-38
0.38931242 -0.28483242 1.3060001 1.7335343e-38
0.39180005 -0.28483242 1.3060001 1.9732379e-38
0.39428765 -0.28483242 1.3060001 1.9729855e-38
0.39677528 -0.28483242 1.3060001 1.963586e-38
0.39926291 -0.28483242 1.3060001 1.9630473e-38
0.4017505 -0.28483242 1.3060001 1.9716862e-38
0.40423813 -0.28483242 1.3060001 1.6035484e-38
0.40764672 -0.28374192 1.3010001 1.2069758e-38
0.41170099 -0.28483242 1.3060001 1.1805032e-38
0.41418859 -0.28483242 1.3060001 1.1985851e-38
0.41667622 -0.28483242 1.3060001 1.2166955e-38
0.41916385 -0.28483242 1.3060001 1.0601392e-38
0.42003718 -0.28374192 1.3010001 9.1277709e-39
0.42251527 -0.28374192 1.3010001 1.1797869e-38
0.42336002 -0.28265142 1.296 1.4468243e-38
0.42582858 -0.28265142 1.296 1.4191272e-38
0.42664474 -0.28156096 1.291 1.3822533e-38
0.42777431 -0.28068858 1.2870001 1.5020378e-38
0.43022573 -0.28068858 1.2870001 1.621816e-38
0.43267718 -0.28068858 1.2870001 1.6125942e-38
0.43512857 -0.28068858 1.2870001 1.6033748e-38
0.43758002 -0.28068858 1.2870001 1.6125584e-38
0.44003144 -0.28068858 1.2870001 1.6312834e-38
0.44248289 -0.28068858 1.2870001 1.6405019e-38
0.44631714 -0.28156096 1.291 1.6497582e-38
0.44877619 -0.28156096 1.291 1.4835585e-38
0.45123523 -0.28156096 1.291 1.3087116e-38
0.45369428 -0.28156096 1.291 1.2715462e-38
0.45615333 -0.28156096 1.291 1.2343799e-38
0.46107143 -0.28156096 1.291 1.2886137e-38
0.46353048 -0.28156096 1.291 1.2712106e-38
0.46598953 -0.28156096 1.291 1.2619217e-38
0.46844858 -0.28156096 1.291 1.2805063e-38
0.49068859 -0.28592288 1.3110001 1.3267124e-38
0.49318573 -0.28592288 1.3110001 1.3451152e-38
0.49628004 -0.28483242 1.3060001 1.0774588e-38
0.49876767 -0.28483242 1.3060001 5.6991831e-39
0.50125527 -0.28483242 1.3060001 7.361217e-40
0.49795711 -0.28156096 1.291 5.5173605e-40
0.50041622 -0.28156096 1.291 4.5959787e-40
0.49437431 -0.27545428 1.263 1.0418084e-38
0.49520671 -0.27458191 1.2590001 1.1708102e-38
0.49760479 -0.27458191 1.2590001 1.3083139e-38
0.49801716 -0.27349144 1.2540001 1.4653326e-38
0.50040573 -0.27349144 1.2540001 1.6306383e-38
0.50279433 -0.27349144 1.2540001 1.6772754e-38
0.50316858 -0.27240098 1.2490001 1.7231571e-38
0.50554764 -0.27240098 1.2490001 1.7322688e-38
0.5079267 -0.27240098 1.2490001 1.7414162e-38
0.5086714 -0.27152857 1.245 1.7415235e-38
0.50899047 -0.27043808 1.24 1.7416669e-38
0.51135236 -0.27043808 1.24 1.741631e-38
0.51205719 -0.26956573 1.2360001 1.7415952e-38
0.51441145 -0.26956573 1.2360001 1.7507431e-38
0.51676571 -0.26956573 1.2360001 1.7507072e-38
0.51912004 -0.26956573 1.2360001 1.7599626e-38
0.5214743 -0.26956573 1.2360001 1.7691466e-38
0.52213335 -0.26869336 1.2320001 1.7783306e-38
0.52448004 -0.26869336 1.2320001 1.7876579e-38
0.52682668 -0.26869336 1.2320001 1.7784387e-38
0.52917337 -0.26869336 1.2320001 1.7784387e-38
0.53152007 -0.26869336 1.2320001 1.7876224e-38
0.5338667 -0.26869336 1.2320001 1.7968417e-38
0.53403723 -0.26760289 1.2270001 1.7968417e-38
0.53462571 -0.26673049 1.223 1.8060243e-38
0.5369553 -0.26673049 1.223 1.8060234e-38
0.537521 -0.26585811 1.2190001 1.8152077e-38
0.53984284 -0.26585811 1.2190001 1.8244996e-38
0.5421648 -0.26585811 1.2190001 1.8429031e-38
0.5468086 -0.26585811 1.2190001 1.8246801e-38
0.5491305 -0.26585811 1.2190001 1.8246801e-38
0.55150288 -0.26476762 1.2140001 1.8338283e-38
0.55381525 -0.26476762 1.2140001 1.8430836e-38
0.55612761 -0.26476762 1.2140001 1.8430837e-38
0.55844003 -0.26476762 1.2140001 1.84312e-38
0.56075239 -0.26476762 1.2140001 1.8522681e-38
0.56306481 -0.26476762 1.2140001 1.8706352e-38
0.56537718 -0.26476762 1.2140001 1.8706352e-38
0.56581908 -0.26389524 1.21 1.8798545e-38
0.56812382 -0.26389524 1.21 1.8707426e-38
0.57042855 -0.26389524 1.21 1.8615952e-38
0.57273334 -0.26389524 1.21 1.8707791e-38
0.57503814 -0.26389524 1.21 1.8891465e-38
0.57734287 -0.26389524 1.21 1.8983303e-38
0.5796476 -0.26389524 1.21 1.9075858e-38
0.58195239 -0.26389524 1.21 1.8890395e-38
0.58425719 -0.26389524 1.21 1.8705273e-38
0.58656192 -0.26389524 1.21 1.7598928e-38
0.58886665 -0.26389524 1.21 1.6584436e-38
0.59117144 -0.26389524 1.21 1.6770264e-38
0.59543818 -0.26476762 1.2140001 1.6953925e-38
0.59775054 -0.26476762 1.2140001 1.6770245e-38
0.60006291 -0.26476762 1.2140001 1.6586581e-38
0.60237533 -0.26476762 1.2140001 1.6770259e-38
0.60468769 -0.26476762 1.2140001 1.6953928e-38
0.60950005 -0.26585811 1.2190001 1.6955001e-38
0.36443621 -0.28234479 1.3060001 1.2439946e-38
0.36692384 -0.28234479 1.3060001 1.2164437e-38
0.36941144 -0.28234479 1.3060001 1.143011e-38
0.3733229 -0.28342572 1.3110001 1.0784745e-38
0.37831718 -0.28342572 1.3110001 1.0322336e-38
0.38081431 -0.28342572 1.3110001 1.0046115e-38
0.38331145 -0.28342572 1.3110001 9.866045e-39
0.38580859 -0.28342572 1.3110001 1.1434794e-38
0.38682482 -0.28234479 1.3060001 1.3098637e-38
0.38931242 -0.28234479 1.3060001 1.5221656e-38
0.39180005 -0.28234479 1.3060001 1.7329195e-38
0.39428765 -0.28234479 1.3060001 1.6865699e-38
0.39677528 -0.28234479 1.3060001 1.6407233e-38
0.39926291 -0.28234479 1.3060001 1.6591976e-38
0.4017505 -0.28234479 1.3060001 1.6864554e-38
0.40423813 -0.28234479 1.3060001 1.511711e-38
0.40672576 -0.28234479 1.3060001 1.3460154e-38
0.40921336 -0.28234479 1.3060001 1.2630077e-38
0.41170099 -0.28234479 1.3060001 1.188678e-38
0.41418859 -0.28234479 1.3060001 9.4904452e-39
0.41667622 -0.28234479 1.3060001 7.0969489e-39
0.41916385 -0.28234479 1.3060001 6.7238336e-39
0.42003718 -0.28126383 1.3010001 6.3651376e-39
0.42251527 -0.28126383 1.3010001 9.2239112e-39
0.42499337 -0.28126383 1.3010001 1.2158667e-38
0.42582858 -0.28018284 1.296 1.1511838e-38
0.42664474 -0.27910191 1.291 1.0969136e-38
0.42777431 -0.27823716 1.2870001 1.3090022e-38
0.43022573 -0.27823716 1.2870001 1.5204734e-38
0.43267718 -0.27823716 1.2870001 1.5299066e-38
0.43512857 -0.27823716 1.2870001 1.5391257e-38
0.44003144 -0.27823716 1.2870001 1.621849e-38
0.44248289 -0.27823716 1.2870001 1.6218488e-38
0.44493431 -0.27823716 1.2870001 1.63103e-38
0.44877619 -0.27910191 1.291 1.3637004e-38
0.45123523 -0.27910191 1.291 1.1060943e-38
0.45369428 -0.27910191 1.291 1.0680686e-38
0.45615333 -0.27910191 1.291 1.0413793e-38
0.46038857 -0.28018284 1.296 1.142291e-38
0.46107143 -0.27910191 1.291 1.2527063e-38
0.46353048 -0.27910191 1.291 1.2804695e-38
0.46598953 -0.27910191 1.291 1.3081647e-38
0.49318573 -0.28342572 1.3110001 1.3083819e-38
0.4956829 -0.28342572 1.3110001 1.1515792e-38
0.49818003 -0.28342572 1.3110001 1.003632e-38
0.50067717 -0.28342572 1.3110001 5.0516712e-39
0.50125527 -0.28234479 1.3060001 1.8440667e-40
0.49437431 -0.27304855 1.263 1.1614461e-38
0.49520671 -0.27218381 1.2590001 1.225947e-38
0.49760479 -0.27218381 1.2590001 1.2899471e-38
0.49801716 -0.27110288 1.2540001 1.4653695e-38
0.50040573 -0.27110288 1.2540001 1.6491848e-38
0.50078958 -0.27002192 1.2490001 1.6771309e-38
0.50316858 -0.27002192 1.2490001 1.7046822e-38
0.50554764 -0.27002192 1.2490001 1.7139024e-38
0.5079267 -0.27002192 1.2490001 1.7230495e-38
0.5086714 -0.26915714 1.245 1.7324117e-38
0.50899047 -0.26807621 1.24 1.7415952e-38
0.50970292 -0.26721144 1.2360001 1.7416311e-38
0.51205719 -0.26721144 1.2360001 1.7507428e-38
0.51441145 -0.26721144 1.2360001 1.7507068e-38
0.51676571 -0.26721144 1.2360001 1.7507069e-38
0.51912004 -0.26721144 1.2360001 1.7507789e-38
0.5214743 -0.26721144 1.2360001 1.7507792e-38
0.52213335 -0.26634669 1.2320001 1.7599988e-38
0.52448004 -0.26634669 1.2320001 1.778402e-38
0.52682668 -0.26634669 1.2320001 1.7784382e-38
0.52917337 -0.26634669 1.2320001 1.7784382e-38
0.53152007 -0.26634669 1.2320001 1.7784383e-38
0.5338667 -0.26634669 1.2320001 1.7876579e-38
0.53403723 -0.26526573 1.2270001 1.7876582e-38
0.53637433 -0.26526573 1.2270001 1.796841e-38
0.5369553 -0.26440096 1.223 1.8060599e-38
0.537521 -0.26353619 1.2190001 1.8152799e-38
0.53984284 -0.26353619 1.2190001 1.815352e-38
0.5421648 -0.26353619 1.2190001 1.8153164e-38
0.5468086 -0.26353619 1.2190001 1.8246796e-38
0.5491305 -0.26353619 1.2190001 1.8154962e-38
0.54919052 -0.26245525 1.2140001 1.8154606e-38
0.55150288 -0.26245525 1.2140001 1.8246445e-38
0.55381525 -0.26245525 1.2140001 1.8338282e-38
0.55612761 -0.26245525 1.2140001 1.8338642e-38
0.55844003 -0.26245525 1.2140001 1.843048e-38
0.56075239 -0.26245525 1.2140001 1.8522318e-38
0.56306481 -0.26245525 1.2140001 1.8613435e-38
0.56537718 -0.26245525 1.2140001 1.8613076e-38
0.56768954 -0.26245525 1.2140001 1.8705985e-38
0.56812382 -0.26159048 1.21 1.870706e-38
0.57042855 -0.26159048 1.21 1.870742e-38
0.57273334 -0.26159048 1.21 1.870778e-38
0.57503814 -0.26159048 1.21 1.8799258e-38
0.57925147 -0.26245525 1.2140001 1.8891095e-38
0.58156383 -0.26245525 1.2140001 1.8981854e-38
0.58387625 -0.26245525 1.2140001 1.8613796e-38
0.58618861 -0.26245525 1.2140001 1.8333619e-38
0.58850098 -0.26245525 1.2140001 1.7410953e-38
0.5908134 -0.26245525 1.2140001 1.6493672e-38
0.59312576 -0.26245525 1.2140001 1.6678778e-38
0.59543818 -0.26245525 1.2140001 1.6862445e-38
0.59775054 -0.26245525 1.2140001 1.6586935e-38
0.60006291 -0.26245525 1.2140001 1.6403275e-38
0.60485625 -0.26353619 1.2190001 1.6587317e-38
0.60717815 -0.26353619 1.2190001 1.6863175e-38
0.60950005 -0.26353619 1.2190001 1.6955361e-38
0.61182195 -0.26353619 1.2190001 1.7047204e-38
0.35584289 -0.28092861 1.3110001 1.1709918e-38
0.35834002 -0.28092861 1.3110001 1.1432971e-38
0.36083716 -0.28092861 1.3110001 1.0878365e-38
0.36333433 -0.28092861 1.3110001 1.0415612e-38
0.36583146 -0.28092861 1.3110001 1.0140475e-38
0.3683286 -0.28092861 1.3110001 9.8656821e-39
0.37082574 -0.28092861 1.3110001 9.4965422e-39
0.3733229 -0.28092861 1.3110001 9.0359046e-39
0.37582001 -0.28092861 1.3110001 8.8522098e-39
0.37831718 -0.28092861 1.3110001 8.6685654e-39
0.38081431 -0.28092861 1.3110001 8.2990977e-39
0.38331145 -0.28092861 1.3110001 7.9299396e-39
0.38580859 -0.28092861 1.3110001 8.2990528e-39
0.38830575 -0.28092861 1.3110001 8.6682431e-39
0.38931242 -0.27985719 1.3060001 9.5888065e-39
0.39180005 -0.27985719 1.3060001 1.0509657e-38
0.39428765 -0.27985719 1.3060001 1.0419959e-38
0.39677528 -0.27985719 1.3060001 1.0422467e-38
0.39926291 -0.27985719 1.3060001 1.060757e-38
0.4017505 -0.27985719 1.3060001 1.088446e-38
0.40423813 -0.27985719 1.3060001 9.4060716e-39
0.40672576 -0.27985719 1.3060001 8.0199576e-39
0.40921336 -0.27985719 1.3060001 7.5532762e-39
0.41170099 -0.27985719 1.3060001 7.0865415e-39
0.41418859 -0.27985719 1.3060001 6.0745336e-39
0.41667622 -0.27985719 1.3060001 5.1543723e-39
0.41916385 -0.27985719 1.3060001 5.0671891e-39
0.42003718 -0.27878574 1.3010001 5.0718709e-39
0.42251527 -0.27878574 1.3010001 7.746958e-39
0.42499337 -0.27878574 1.3010001 1.0506647e-38
0.42664474 -0.27664286 1.291 9.676944e-39
0.42777431 -0.27578571 1.2870001 1.1612029e-38
0.43022573 -0.27578571 1.2870001 1.3547025e-38
0.43267718 -0.27578571 1.2870001 1.40105e-38
0.43512857 -0.27578571 1.2870001 1.4565095e-38
0.43758002 -0.27578571 1.2870001 1.4931714e-38
0.44003144 -0.27578571 1.2870001 1.5210096e-38
0.44248289 -0.27578571 1.2870001 1.5023919e-38
0.44631714 -0.27664286 1.291 1.4837681e-38
0.44877619 -0.27664286 1.291 1.3358571e-38
0.45123523 -0.27664286 1.291 1.1973508e-38
0.45369428 -0.27664286 1.291 1.1973512e-38
0.45615333 -0.27664286 1.291 1.1973536e-38
0.46038857 -0.27771428 1.296 1.2343772e-38
0.46285713 -0.27771428 1.296 1.2713619e-38
0.49191529 -0.28307146 1.3210001 1.2716844e-38
0.49318573 -0.28092861 1.3110001 1.2716486e-38
0.4956829 -0.28092861 1.3110001 1.114702e-38
0.49818003 -0.28092861 1.3110001 9.5735562e-39
0.50067717 -0.28092861 1.3110001 5.3268203e-39
0.50125527 -0.27985719 1.3060001 1.0105814e-39
0.49633142 -0.27171427 1.268 1.2168349e-38
0.49760479 -0.26978573 1.2590001 1.2807998e-38
0.50000292 -0.26978573 1.2590001 1.4746976e-38
0.50040573 -0.26871431 1.2540001 1.6585836e-38
0.50279433 -0.26871431 1.2540001 1.677094e-38
0.50316858 -0.26764289 1.2490001 1.6955344e-38
0.50554764 -0.26764289 1.2490001 1.7047197e-38
0.5079267 -0.26764289 1.2490001 1.7139022e-38
0.5086714 -0.26678571 1.245 1.7230848e-38
0.50899047 -0.26571429 1.24 1.7323042e-38
0.51135236 -0.26571429 1.24 1.7323401e-38
0.51205719 -0.26485714 1.2360001 1.7415591e-38
0.51441145 -0.26485714 1.2360001 1.7415587e-38
0.51676571 -0.26485714 1.2360001 1.7415591e-38
0.51912004 -0.26485714 1.2360001 1.7415595e-38
0.5214743 -0.26485714 1.2360001 1.7415595e-38
0.52213335 -0.264 1.2320001 1.7508148e-38
0.52448004 -0.264 1.2320001 1.7692179e-38
0.52682668 -0.264 1.2320001 1.7691823e-38
0.52917337 -0.264 1.2320001 1.77833e-38
0.53152007 -0.264 1.2320001 1.7784019e-38
0.5338667 -0.264 1.2320001 1.7784741e-38
0.53403723 -0.26292858 1.2270001 1.7692552e-38
0.53637433 -0.26292858 1.2270001 1.7692549e-38
0.53871143 -0.26292858 1.2270001 1.7876935e-38
0.53928477 -0.26207143 1.223 1.8061326e-38
0.54161429 -0.26207143 1.223 1.7969135e-38
0.5421648 -0.26121432 1.2190001 1.7969135e-38
0.5444867 -0.26121432 1.2190001 1.7969493e-38
0.5468086 -0.26121432 1.2190001 1.7970211e-38
0.5491305 -0.26121432 1.2190001 1.7970571e-38
0.5514524 -0.26121432 1.2190001 1.8063127e-38
0.55377436 -0.26121432 1.2190001 1.8245726e-38
0.55381525 -0.26014286 1.2140001 1.8429039e-38
0.55612761 -0.26014286 1.2140001 1.8337207e-38
0.55844003 -0.26014286 1.2140001 1.8337567e-38
0.56075239 -0.26014286 1.2140001 1.833721e-38
0.56306481 -0.26014286 1.2140001 1.8429042e-38
0.56537718 -0.26014286 1.2140001 1.8429041e-38
0.56768954 -0.26014286 1.2140001 1.8521591e-38
0.56812382 -0.25928572 1.21 1.8521948e-38
0.57042855 -0.25928572 1.21 1.8522306e-38
0.57273334 -0.25928572 1.21 1.86145e-38
0.57503814 -0.25928572 1.21 1.8615217e-38
0.57734287 -0.25928572 1.21 1.8706335e-38
0.58156383 -0.26014286 1.2140001 1.8705975e-38
0.58387625 -0.26014286 1.2140001 1.7966628e-38
0.58618861 -0.26014286 1.2140001 1.7317682e-38
0.58850098 -0.26014286 1.2140001 1.6861376e-38
0.5908134 -0.26014286 1.2140001 1.6496898e-38
0.59312576 -0.26014286 1.2140001 1.6679846e-38
0.5978905 -0.26121432 1.2190001 1.6954994e-38
0.59775054 -0.26014286 1.2140001 1.6770966e-38
0.60253435 -0.26121432 1.2190001 1.6587311e-38
0.60485625 -0.26121432 1.2190001 1.6679165e-38
0.60717815 -0.26121432 1.2190001 1.6863182e-38
0.60950005 -0.26121432 1.2190001 1.6954646e-38
0.61182195 -0.26121432 1.2190001 1.7138319e-38
0.35584289 -0.27843145 1.3110001 9.4972387e-39
0.35834002 -0.27843145 1.3110001 9.1266625e-39
0.36083716 -0.27843145 1.3110001 8.5724153e-39
0.36333433 -0.27843145 1.3110001 8.111447e-39
0.36583146 -0.27843145 1.3110001 7.8345084e-39
0.3683286 -0.27843145 1.3110001 7.6504702e-39
0.37082574 -0.27843145 1.3110001 7.4664335e-39
0.3733229 -0.27843145 1.3110001 7.3738791e-39
0.37582001 -0.27843145 1.3110001 7.189848e-39
0.37831718 -0.27843145 1.3110001 7.0962245e-39
0.38081431 -0.27843145 1.3110001 6.5434234e-39
0.38331145 -0.27843145 1.3110001 6.0810033e-39
0.38580859 -0.27843145 1.3110001 5.1597645e-39
0.38830575 -0.27843145 1.3110001 4.3339849e-39
0.38931242 -0.27736956 1.3060001 4.0592183e-39
0.39180005 -0.27736956 1.3060001 3.783702e-39
0.39428765 -0.27736956 1.3060001 4.0591987e-39
0.39677528 -0.27736956 1.3060001 4.423654e-39
0.39926291 -0.27736956 1.3060001 4.6044383e-39
0.4017505 -0.27736956 1.3060001 4.8781273e-39
0.40423813 -0.27736956 1.3060001 3.6824498e-39
0.40672576 -0.27736956 1.3060001 2.5779253e-39
0.40921336 -0.27736956 1.3060001 2.4835899e-39
0.41170099 -0.27736956 1.3060001 2.4010843e-39
0.41418859 -0.27736956 1.3060001 2.7641257e-39
0.41667622 -0.27736956 1.3060001 3.2247339e-39
0.41916385 -0.27736956 1.3060001 3.4995201e-39
0.42003718 -0.27630764 1.3010001 3.786883e-39
0.42251527 -0.27630764 1.3010001 6.2704071e-39
0.42499337 -0.27630764 1.3010001 8.8428561e-39
0.42664474 -0.27418381 1.291 8.4816378e-39
0.42777431 -0.27333429 1.2870001 1.0134007e-38
0.43022573 -0.27333429 1.2870001 1.188856e-38
0.43267718 -0.27333429 1.2870001 1.2814084e-38
0.43512857 -0.27333429 1.2870001 1.3826428e-38
0.43758002 -0.27333429 1.2870001 1.4012613e-38
0.44248289 -0.27333429 1.2870001 1.3823928e-38
0.44631714 -0.27418381 1.291 1.3452251e-38
0.44877619 -0.27418381 1.291 1.317241e-38
0.45123523 -0.27418381 1.291 1.2897261e-38
0.45545143 -0.2752457 1.296 1.3173485e-38
0.45792001 -0.2752457 1.296 1.3540484e-38
0.46038857 -0.2752457 1.296 1.3173156e-38
0.46285713 -0.2752457 1.296 1.2897653e-38
0.49318573 -0.27843145 1.3110001 1.243594e-38
0.4956829 -0.27843145 1.3110001 1.0778586e-38
0.49818003 -0.27843145 1.3110001 9.2094596e-39
0.49633142 -0.26929906 1.268 1.2712905e-38
0.49874669 -0.26929906 1.268 1.2714694e-38
0.50000292 -0.26738763 1.2590001 1.4748767e-38
0.50040573 -0.26632574 1.2540001 1.6769863e-38
0.50279433 -0.26632574 1.2540001 1.6770935e-38
0.50316858 -0.26526383 1.2490001 1.6862423e-38
0.50554764 -0.26526383 1.2490001 1.6954269e-38
0.5079267 -0.26526383 1.2490001 1.7138295e-38
0.5086714 -0.26441428 1.245 1.7138651e-38
0.51104289 -0.26441428 1.245 1.7230845e-38
0.51135236 -0.26335236 1.24 1.7323041e-38
0.51371431 -0.26335236 1.24 1.7415231e-38
0.51441145 -0.26250288 1.2360001 1.7415585e-38
0.51676571 -0.26250288 1.2360001 1.7415232e-38
0.51912004 -0.26250288 1.2360001 1.7414879e-38
0.5214743 -0.26250288 1.2360001 1.7415238e-38
0.52382857 -0.26250288 1.2360001 1.7508508e-38
0.52448004 -0.26165336 1.2320001 1.7599985e-38
0.52682668 -0.26165336 1.2320001 1.7691462e-38
0.52917337 -0.26165336 1.2320001 1.7783297e-38
0.53152007 -0.26165336 1.2320001 1.7692179e-38
0.5338667 -0.26165336 1.2320001 1.7692183e-38
0.5362134 -0.26165336 1.2320001 1.7600712e-38
0.53856003 -0.26165336 1.2320001 1.7508877e-38
0.53871143 -0.26059145 1.2270001 1.7693264e-38
0.53928477 -0.2597419 1.223 1.7968414e-38
0.54161429 -0.2597419 1.223 1.7876582e-38
0.5421648 -0.25889242 1.2190001 1.7876942e-38
0.5444867 -0.25889242 1.2190001 1.7785466e-38
0.5468086 -0.25889242 1.2190001 1.7785825e-38
0.5491305 -0.25889242 1.2190001 1.7878021e-38
0.5514524 -0.25889242 1.2190001 1.7969499e-38
0.55377436 -0.25889242 1.2190001 1.8245008e-38
0.55381525 -0.2578305 1.2140001 1.8520156e-38
0.55612761 -0.2578305 1.2140001 1.8336486e-38
0.55844003 -0.2578305 1.2140001 1.824501e-38
0.56075239 -0.2578305 1.2140001 1.8245368e-38
0.56306481 -0.2578305 1.2140001 1.8245368e-38
0.56537718 -0.2578305 1.2140001 1.8337204e-38
0.56768954 -0.2578305 1.2140001 1.8429397e-38
0.57000196 -0.2578305 1.2140001 1.8430473e-38
0.57042855 -0.25698096 1.21 1.8430114e-38
0.57273334 -0.25698096 1.21 1.8430113e-38
0.57693911 -0.2578305 1.2140001 1.8521947e-38
0.57925147 -0.2578305 1.2140001 1.8521946e-38
0.58156383 -0.2578305 1.2140001 1.8520869e-38
0.58387625 -0.2578305 1.2140001 1.741131e-38
0.58618861 -0.2578305 1.2140001 1.6310359e-38
0.58850098 -0.2578305 1.2140001 1.6403628e-38
0.5908134 -0.2578305 1.2140001 1.6495821e-38
0.5955686 -0.25889242 1.2190001 1.6772043e-38
0.5978905 -0.25889242 1.2190001 1.704719e-38
0.6002124 -0.25889242 1.2190001 1.6863158e-38
0.60253435 -0.25889242 1.2190001 1.677061e-38
0.60485625 -0.25889242 1.2190001 1.6770255e-38
0.60717815 -0.25889242 1.2190001 1.6862089e-38
0.60950005 -0.25889242 1.2190001 1.7045759e-38
0.35584289 -0.27593431 1.3110001 8.9404692e-39
0.35834002 -0.27593431 1.3110001 8.3872982e-39
0.36083716 -0.27593431 1.3110001 7.9273976e-39
0.36333433 -0.27593431 1.3110001 7.5593326e-39
0.36583146 -0.27593431 1.3110001 7.1898326e-39
0.3683286 -0.27593431 1.3110001 6.8206843e-39
0.37082574 -0.27593431 1.3110001 6.6380783e-39
0.3733229 -0.27593431 1.3110001 6.5473401e-39
0.37582001 -0.27593431 1.3110001 6.1775094e-39
0.37831718 -0.27593431 1.3110001 5.8076408e-39
0.38081431 -0.27593431 1.3110001 5.5296092e-39
0.38331145 -0.27593431 1.3110001 5.3434201e-39
0.38580859 -0.27593431 1.3110001 4.6062194e-39
0.38682482 -0.27488193 1.3060001 3.96085e-39
0.38931242 -0.27488193 1.3060001 4.2334768e-39
0.39180005 -0.27488193 1.3060001 4.5979447e-39
0.39428765 -0.27488193 1.3060001 5.1471598e-39
0.39677528 -0.27488193 1.3060001 5.7881824e-39
0.39926291 -0.27488193 1.3060001 6.0629406e-39
0.4017505 -0.27488193 1.3060001 6.4295707e-39
0.40423813 -0.27488193 1.3060001 6.3373835e-39
0.40672576 -0.27488193 1.3060001 6.2451837e-39
0.40921336 -0.27488193 1.3060001 6.526067e-39
0.41667622 -0.27488193 1.3060001 7.7264514e-39
0.41916385 -0.27488193 1.3060001 7.9151503e-39
0.42251527 -0.27382955 1.3010001 9.4860759e-39
0.42499337 -0.27382955 1.3010001 1.0868269e-38
0.42664474 -0.27172476 1.291 1.059277e-38
0.42777431 -0.27088284 1.2870001 1.1421453e-38
0.43022573 -0.27088284 1.2870001 1.2158642e-38
0.43267718 -0.27088284 1.2870001 1.2621044e-38
0.43512857 -0.27088284 1.2870001 1.3083817e-38
0.43758002 -0.27088284 1.2870001 1.317638e-38
0.44003144 -0.27088284 1.2870001 1.3360771e-38
0.44248289 -0.27088284 1.2870001 1.326571e-38
0.44631714 -0.27172476 1.291 1.3171e-38
0.44877619 -0.27172476 1.291 1.2989478e-38
0.45123523 -0.27172476 1.291 1.2898714e-38
0.45545143 -0.27277714 1.296 1.2990187e-38
0.45792001 -0.27277714 1.296 1.3173863e-38
0.46038857 -0.27277714 1.296 1.2989839e-38
0.46285713 -0.27277714 1.296 1.2806179e-38
0.4956829 -0.27593431 1.3110001 9.3978096e-39
0.49818003 -0.27593431 1.3110001 8.9375573e-39
0.49498954 -0.26877812 1.2770001 8.6731631e-39
0.49742192 -0.26877812 1.2770001 1.0324833e-38
0.49789718 -0.26772574 1.2720001 1.1977503e-38
0.49874669 -0.26688379 1.268 1.2623213e-38
0.49918574 -0.26583144 1.263 1.3268962e-38
0.50000292 -0.26498953 1.2590001 1.5023914e-38
0.50040573 -0.26393715 1.2540001 1.6675153e-38
0.50279433 -0.26393715 1.2540001 1.6678378e-38
0.50316858 -0.26288477 1.2490001 1.6678383e-38
0.50554764 -0.26288477 1.2490001 1.686206e-38
0.5079267 -0.26288477 1.2490001 1.6953898e-38
0.5086714 -0.26204285 1.245 1.7045738e-38
0.51104289 -0.26204285 1.245 1.7137932e-38
0.51341432 -0.26204285 1.245 1.7137933e-38
0.51371431 -0.26099047 1.24 1.7229765e-38
0.51607621 -0.26099047 1.24 1.7231556e-38
0.51676571 -0.26014858 1.2360001 1.7323397e-38
0.51912004 -0.26014858 1.2360001 1.7323045e-38
0.5214743 -0.26014858 1.2360001 1.7323045e-38
0.52382857 -0.26014858 1.2360001 1.7415239e-38
0.52448004 -0.2593067 1.2320001 1.7507791e-38
0.52682668 -0.2593067 1.2320001 1.7507789e-38
0.52917337 -0.2593067 1.2320001 1.7599623e-38
0.53152007 -0.2593067 1.2320001 1.7599981e-38
0.5338667 -0.2593067 1.2320001 1.7692181e-38
0.5362134 -0.2593067 1.2320001 1.7600351e-38
0.53856003 -0.2593067 1.2320001 1.7600711e-38
0.54090667 -0.2593067 1.2320001 1.7692907e-38
0.54104865 -0.25825432 1.2270001 1.7876938e-38
0.54161429 -0.2574124 1.223 1.7784746e-38
0.5421648 -0.25657049 1.2190001 1.7784749e-38
0.5444867 -0.25657049 1.2190001 1.7692558e-38
0.5468086 -0.25657049 1.2190001 1.76922e-38
0.5491305 -0.25657049 1.2190001 1.7784037e-38
0.5514524 -0.25657049 1.2190001 1.7876231e-38
0.55377436 -0.25657049 1.2190001 1.8059185e-38
0.55381525 -0.25551814 1.2140001 1.8242497e-38
0.55612761 -0.25551814 1.2140001 1.8152097e-38
0.55844003 -0.25551814 1.2140001 1.8152095e-38
0.56075239 -0.25551814 1.2140001 1.8152094e-38
0.56306481 -0.25551814 1.2140001 1.8244289e-38
0.56537718 -0.25551814 1.2140001 1.8244291e-38
0.56768954 -0.25551814 1.2140001 1.8336486e-38
0.57000196 -0.25551814 1.2140001 1.8244652e-38
0.57042855 -0.25467619 1.21 1.8244651e-38
0.57273334 -0.25467619 1.21 1.8337204e-38
0.57693911 -0.25551814 1.2140001 1.8521588e-38
0.57925147 -0.25551814 1.2140001 1.8061332e-38
0.58156383 -0.25551814 1.2140001 1.7693274e-38
0.58387625 -0.25551814 1.2140001 1.713724e-38
0.58618861 -0.25551814 1.2140001 1.6586939e-38
0.58850098 -0.25551814 1.2140001 1.6586935e-38
0.5932467 -0.25657049 1.2190001 1.6587296e-38
0.5955686 -0.25657049 1.2190001 1.6770611e-38
0.5978905 -0.25657049 1.2190001 1.6862085e-38
0.6002124 -0.25657049 1.2190001 1.6862082e-38
0.60253435 -0.25657049 1.2190001 1.6770237e-38
0.60485625 -0.25657049 1.2190001 1.6770227e-38
0.60717815 -0.25657049 1.2190001 1.6862072e-38
0.60950005 -0.25657049 1.2190001 1.6953919e-38
0.61182195 -0.25657049 1.2190001 1.7137949e-38
0.34086001 -0.27343714 1.3110001 1.8524429e-38
0.35334575 -0.27343714 1.3110001 9.2177665e-39
0.35584289 -0.27343714 1.3110001 8.4701668e-39
0.35834002 -0.27343714 1.3110001 7.7430106e-39
0.36083716 -0.27343714 1.3110001 7.3724344e-39
0.36333433 -0.27343714 1.3110001 7.0029358e-39
0.36583146 -0.27343714 1.3110001 6.5419605e-39
0.3683286 -0.27343714 1.3110001 6.0841997e-39
0.37082574 -0.27343714 1.3110001 5.8951295e-39
0.3733229 -0.27343714 1.3110001 5.7114767e-39
0.37582001 -0.27343714 1.3110001 5.1604806e-39
0.37831718 -0.27343714 1.3110001 4.6087361e-39
0.38081431 -0.27343714 1.3110001 4.6080046e-39
0.38331145 -0.27343714 1.3110001 4.6101444e-39
0.38580859 -0.27343714 1.3110001 4.0483569e-39
0.38682482 -0.27239433 1.3060001 3.5895311e-39
0.38931242 -0.27239433 1.3060001 4.5082392e-39
0.39180005 -0.27239433 1.3060001 5.4273046e-39
0.39428765 -0.27239433 1.3060001 6.2545331e-39
0.39677528 -0.27239433 1.3060001 7.1793579e-39
0.39926291 -0.27239433 1.3060001 7.6450052e-39
0.42777431 -0.26843145 1.2870001 1.2621052e-38
0.43022573 -0.26843145 1.2870001 1.2527779e-38
0.43267718 -0.26843145 1.2870001 1.2434866e-38
0.43512857 -0.26843145 1.2870001 1.234231e-38
0.43758002 -0.26843145 1.2870001 1.2433426e-38
0.44003144 -0.26843145 1.2870001 1.2532084e-38
0.44631714 -0.26926571 1.291 1.2897999e-38
0.44877619 -0.26926571 1.291 1.2898358e-38
0.45792001 -0.27030858 1.296 1.2806161e-38
0.49498954 -0.26634574 1.2770001 1.1152026e-38
0.49547434 -0.26530287 1.2720001 1.1152063e-38
0.49789718 -0.26530287 1.2720001 1.1241736e-38
0.49874669 -0.26446858 1.268 1.2532088e-38
0.49918574 -0.26342574 1.263 1.382069e-38
0.50000292 -0.26259142 1.2590001 1.5207227e-38
0.50040573 -0.26154858 1.2540001 1.6677307e-38
0.50279433 -0.26154858 1.2540001 1.6586183e-38
0.50518286 -0.26154858 1.2540001 1.6586188e-38
0.50554764 -0.26050571 1.2490001 1.6678386e-38
0.5079267 -0.26050571 1.2490001 1.6862061e-38
0.51030576 -0.26050571 1.2490001 1.69539e-38
0.51104289 -0.25967142 1.245 1.7045378e-38
0.51341432 -0.25967142 1.245 1.7045378e-38
0.51578569 -0.25967142 1.245 1.7138645e-38
0.51607621 -0.25862858 1.24 1.7139719e-38
0.5184381 -0.25862858 1.24 1.7231205e-38
0.51912004 -0.25779429 1.2360001 1.7230858e-38
0.5214743 -0.25779429 1.2360001 1.7230855e-38
0.52382857 -0.25779429 1.2360001 1.7323405e-38
0.52618283 -0.25779429 1.2360001 1.7415238e-38
0.52853721 -0.25779429 1.2360001 1.7415594e-38
0.52917337 -0.25696 1.2320001 1.7507431e-38
0.53152007 -0.25696 1.2320001 1.7599625e-38
0.5338667 -0.25696 1.2320001 1.7691822e-38
0.5362134 -0.25696 1.2320001 1.7692183e-38
0.53856003 -0.25696 1.2320001 1.7692186e-38
0.53871143 -0.25591716 1.2270001 1.7692905e-38
0.53928477 -0.25508285 1.223 1.7784386e-38
0.54161429 -0.25508285 1.223 1.7692553e-38
0.5421648 -0.25424859 1.2190001 1.7691837e-38
0.5444867 -0.25424859 1.2190001 1.769148e-38
0.5468086 -0.25424859 1.2190001 1.769112e-38
0.5491305 -0.25424859 1.2190001 1.769112e-38
0.5514524 -0.25424859 1.2190001 1.7783314e-38
0.55377436 -0.25424859 1.2190001 1.787551e-38
0.55609626 -0.25424859 1.2190001 1.7967703e-38
0.55841815 -0.25424859 1.2190001 1.7968061e-38
0.56074005 -0.25424859 1.2190001 1.8059895e-38
0.56306195 -0.25424859 1.2190001 1.8152088e-38
0.56306481 -0.25320575 1.2140001 1.8243569e-38
0.56537718 -0.25320575 1.2140001 1.8243573e-38
0.56768954 -0.25320575 1.2140001 1.8243932e-38
0.57000196 -0.25320575 1.2140001 1.8152457e-38
0.57231432 -0.25320575 1.2140001 1.8152458e-38
0.57273334 -0.25237146 1.21 1.8336848e-38
0.57693911 -0.25320575 1.2140001 1.8519789e-38
0.57925147 -0.25320575 1.2140001 1.7692898e-38
0.58156383 -0.25320575 1.2140001 1.6864947e-38
0.58387625 -0.25320575 1.2140001 1.6863156e-38
0.58618861 -0.25320575 1.2140001 1.6862798e-38
0.5909248 -0.25424859 1.2190001 1.6770604e-38
0.5932467 -0.25424859 1.2190001 1.6770608e-38
0.59985238 -0.25508285 1.223 1.6770608e-38
0.6002124 -0.25424859 1.2190001 1.6770604e-38
0.60451144 -0.25508285 1.223 1.6862075e-38
0.60485625 -0.25424859 1.2190001 1.6862787e-38
0.60717815 -0.25424859 1.2190001 1.686244e-38
0.60950005 -0.25424859 1.2190001 1.6954285e-38
0.33591145 -0.27300668 1.3210001 1.7695101e-38
0.34086001 -0.27094004 1.3110001 1.5939403e-38
0.34335718 -0.27094004 1.3110001 1.5017084e-38
0.34585431 -0.27094004 1.3110001 1.3360082e-38
0.34835148 -0.27094004 1.3110001 1.1703432e-38
0.35084859 -0.27094004 1.3110001 1.0870433e-38
0.35334575 -0.27094004 1.3110001 1.0043917e-38
0.35584289 -0.27094004 1.3110001 9.6733525e-39
0.35834002 -0.27094004 1.3110001 9.3949691e-39
0.36083716 -0.27094004 1.3110001 9.1176634e-39
0.36333433 -0.27094004 1.3110001 8.8403604e-39
0.36583146 -0.27094004 1.3110001 8.4715807e-39
0.3683286 -0.27094004 1.3110001 8.1031387e-39
0.37082574 -0.27094004 1.3110001 8.2857097e-39
0.3733229 -0.27094004 1.3110001 8.4683171e-39
0.37582001 -0.27094004 1.3110001 8.2835839e-39
0.37831718 -0.27094004 1.3110001 8.1910169e-39
0.38081431 -0.27094004 1.3110001 8.283916e-39
0.38331145 -0.27094004 1.3110001 8.3771668e-39
0.38580859 -0.27094004 1.3110001 8.1945524e-39
0.38830575 -0.27094004 1.3110001 8.0119548e-39
0.39080289 -0.27094004 1.3110001 8.5683474e-39
0.49946383 -0.27300668 1.3210001 7.4620685e-39
0.49498954 -0.26391333 1.2770001 1.1059856e-38
0.49547434 -0.26288003 1.2720001 1.1059504e-38
0.49789718 -0.26288003 1.2720001 1.1149178e-38
0.49874669 -0.26205334 1.268 1.262571e-38
0.50000292 -0.26019335 1.2590001 1.5299424e-38
0.50040573 -0.25916001 1.2540001 1.6585473e-38
0.50279433 -0.25916001 1.2540001 1.6493632e-38
0.50518286 -0.25916001 1.2540001 1.6401799e-38
0.50554764 -0.25812668 1.2490001 1.658619e-38
0.5079267 -0.25812668 1.2490001 1.6679105e-38
0.51030576 -0.25812668 1.2490001 1.6769868e-38
0.51104289 -0.25730002 1.245 1.6952822e-38
0.51341432 -0.25730002 1.245 1.6953541e-38
0.51578569 -0.25730002 1.245 1.7047885e-38
0.51607621 -0.25626668 1.24 1.7047164e-38
0.5184381 -0.25626668 1.24 1.7138296e-38
0.52079999 -0.25626668 1.24 1.7139029e-38
0.52316189 -0.25626668 1.24 1.7139024e-38
0.52382857 -0.25544 1.2360001 1.7230854e-38
0.52618283 -0.25544 1.2360001 1.7322685e-38
0.52853721 -0.25544 1.2360001 1.7323041e-38
0.52917337 -0.25461334 1.2320001 1.7323761e-38
0.53152007 -0.25461334 1.2320001 1.7323405e-38
0.5338667 -0.25461334 1.2320001 1.7414882e-38
0.5362134 -0.25461334 1.2320001 1.7415599e-38
0.53856003 -0.25461334 1.2320001 1.7508514e-38
0.53871143 -0.25358003 1.2270001 1.7599635e-38
0.53928477 -0.25275335 1.223 1.7690757e-38
0.54161429 -0.25275335 1.223 1.7598568e-38
0.54394388 -0.25275335 1.223 1.7598567e-38
0.5444867 -0.25192666 1.2190001 1.7506731e-38
0.5468086 -0.25192666 1.2190001 1.7507087e-38
0.5491305 -0.25192666 1.2190001 1.7507443e-38
0.5514524 -0.25192666 1.2190001 1.7599639e-38
0.55377436 -0.25192666 1.2190001 1.7691836e-38
0.55609626 -0.25192666 1.2190001 1.7785104e-38
0.55841815 -0.25192666 1.2190001 1.7875861e-38
0.56074005 -0.25192666 1.2190001 1.7967696e-38
0.56306195 -0.25192666 1.2190001 1.7967335e-38
0.56306481 -0.25089335 1.2140001 1.8059178e-38
0.56537718 -0.25089335 1.2140001 1.8059545e-38
0.56768954 -0.25089335 1.2140001 1.8151738e-38
0.57000196 -0.25089335 1.2140001 1.8060261e-38
0.57231432 -0.25089335 1.2140001 1.8060623e-38
0.57462668 -0.25089335 1.2140001 1.8243939e-38
0.57693911 -0.25089335 1.2140001 1.8427589e-38
0.57925147 -0.25089335 1.2140001 1.7599614e-38
0.58156383 -0.25089335 1.2140001 1.6771663e-38
0.58387625 -0.25089335 1.2140001 1.6770233e-38
0.58618861 -0.25089335 1.2140001 1.6769521e-38
0.5909248 -0.25192666 1.2190001 1.667841e-38
0.5932467 -0.25192666 1.2190001 1.6678773e-38
0.5955686 -0.25192666 1.2190001 1.6679136e-38
0.59985238 -0.25275335 1.223 1.6770967e-38
0.6002124 -0.25192666 1.2190001 1.6770245e-38
0.60451144 -0.25275335 1.223 1.6770244e-38
0.60485625 -0.25192666 1.2190001 1.677096e-38
0.6091705 -0.25275335 1.223 1.677097e-38
0.61150002 -0.25275335 1.223 1.6862458e-38
0.34086001 -0.26844287 1.3110001 1.3455883e-38
0.34335718 -0.26844287 1.3110001 1.3270767e-38
0.34585431 -0.26844287 1.3110001 1.2810504e-38
0.34835148 -0.26844287 1.3110001 1.2435603e-38
0.35084859 -0.26844287 1.3110001 1.1699102e-38
0.35334575 -0.26844287 1.3110001 1.096262e-38
0.35584289 -0.26844287 1.3110001 1.0962617e-38
0.35834002 -0.26844287 1.3110001 1.1053015e-38
