# .PCD v0.7 - Point Cloud Data file format
VERSION 0.7
FIELDS x y z rgb
SIZE 4 4 4 4
TYPE F F F F
COUNT 1 1 1 1
WIDTH 952
HEIGHT 1
VIEWPOINT 0 0 0 1 0 0 0
POINTS 952
DATA ascii
-0.0036095236 -0.083019048 0.75800002 1.0809074e-38
-0.0021657145 -0.083019048 0.75800002 1.0901637e-38
-0.0007219048 -0.083019048 0.75800002 1.1086014e-38
0.0007219048 -0.083019048 0.75800002 1.1178556e-38
0.0021657145 -0.083019048 0.75800002 1.1362228e-38
0.0036095236 -0.083019048 0.75800002 1.136223e-38
0.0050400002 -0.082800001 0.75600004 1.1454069e-38
0.0064971428 -0.083019048 0.75800002 1.1454434e-38
0.0079409527 -0.083019048 0.75800002 1.1454436e-38
0.0093847616 -0.083019048 0.75800002 1.1455158e-38
0.010828571 -0.083019048 0.75800002 1.1454788e-38
0.012304762 -0.083238102 0.76000005 1.1546254e-38
0.013770477 -0.083347626 0.76100004 1.1637377e-38
0.01522 -0.083347626 0.76100004 1.1729218e-38
0.016669523 -0.083347626 0.76100004 1.1820339e-38
0.018119048 -0.083347626 0.76100004 1.2004372e-38
0.019619999 -0.083566666 0.76300001 1.2277754e-38
0.021073334 -0.083566666 0.76300001 1.3280082e-38
0.022644762 -0.08400476 0.76700002 1.4285606e-38
0.024137143 -0.084114283 0.76800001 1.4285963e-38
0.025666667 -0.084333338 0.77000004 1.4376722e-38
0.027133334 -0.084333338 0.77000004 1.4376365e-38
0.0286 -0.084333338 0.77000004 1.4468203e-38
0.030144762 -0.084552377 0.77200001 1.45604e-38
-0.038079999 -0.084373333 0.78400004 1.29023e-38
-0.036586668 -0.084373333 0.78400004 1.2994789e-38
-0.035003811 -0.0841581 0.78200006 1.0790313e-38
-0.033428572 -0.08394286 0.78000003 8.5888035e-39
-0.031942859 -0.08394286 0.78000003 9.0508817e-39
-0.030418096 -0.083835244 0.77900004 9.5125661e-39
-0.028934287 -0.083835244 0.77900004 9.6054736e-39
-0.025733333 -0.083081901 0.77200001 9.6061994e-39
-0.024200002 -0.082866669 0.77000004 9.6076358e-39
-0.022674287 -0.082651429 0.76800001 9.6079959e-39
-0.021211429 -0.082651429 0.76800001 9.7012649e-39
-0.019722857 -0.082543813 0.76700002 9.609428e-39
-0.018214287 -0.08232858 0.76500005 9.6097854e-39
-0.016757144 -0.08232858 0.76500005 9.7023369e-39
-0.015260001 -0.082113333 0.76300001 9.79525e-39
-0.013806666 -0.082113333 0.76300001 9.7952528e-39
-0.012320952 -0.081898101 0.76100004 9.8870883e-39
-0.010857143 -0.081790477 0.76000005 9.9789252e-39
-0.0094095245 -0.081790477 0.76000005 1.0070762e-38
-0.0079619056 -0.081790477 0.76000005 1.0163677e-38
-0.0064971428 -0.081575237 0.75800002 1.0255528e-38
-0.0050533335 -0.081575237 0.75800002 1.0348455e-38
-0.0036095236 -0.081575237 0.75800002 1.0533575e-38
-0.0021657145 -0.081575237 0.75800002 1.0625784e-38
-0.0007219048 -0.081575237 0.75800002 1.0809801e-38
0.0007219048 -0.081575237 0.75800002 1.0901984e-38
0.0021657145 -0.081575237 0.75800002 1.1086007e-38
0.0036095236 -0.081575237 0.75800002 1.1177837e-38
0.0050400002 -0.081359997 0.75600004 1.1269675e-38
0.0064971428 -0.081575237 0.75800002 1.1270038e-38
0.0079409527 -0.081575237 0.75800002 1.1270411e-38
0.0093847616 -0.081575237 0.75800002 1.1178232e-38
0.010828571 -0.081575237 0.75800002 1.1086385e-38
0.012304762 -0.081790477 0.76000005 1.1269686e-38
0.013752381 -0.081790477 0.76000005 1.1453352e-38
0.015200001 -0.081790477 0.76000005 1.1545182e-38
0.016669523 -0.081898101 0.76100004 1.1728139e-38
0.018119048 -0.081898101 0.76100004 1.2002933e-38
0.019619999 -0.082113333 0.76300001 1.227775e-38
0.021073334 -0.082113333 0.76300001 1.3279e-38
0.022644762 -0.082543813 0.76700002 1.4285244e-38
0.024137143 -0.082651429 0.76800001 1.4377081e-38
0.025666667 -0.082866669 0.77000004 1.4560762e-38
0.027133334 -0.082866669 0.77000004 1.4468936e-38
0.0286 -0.082866669 0.77000004 1.4377094e-38
0.030144762 -0.083081901 0.77200001 1.4467846e-38
-0.041276194 -0.083302855 0.78800005 1.2810491e-38
-0.039674286 -0.08309143 0.78600001 1.2994148e-38
-0.038079999 -0.082879998 0.78400004 1.308633e-38
-0.036586668 -0.082879998 0.78400004 1.3178125e-38
-0.035093337 -0.082879998 0.78400004 1.0974391e-38
-0.033514287 -0.08266858 0.78200006 8.8643338e-39
-0.031942859 -0.08245714 0.78000003 9.2345527e-39
-0.030418096 -0.082351431 0.77900004 9.6040372e-39
-0.028859999 -0.082139999 0.77700001 9.6972993e-39
-0.027380001 -0.082139999 0.77700001 9.8813332e-39
-0.025733333 -0.081611432 0.77200001 9.6976664e-39
-0.024200002 -0.0814 0.77000004 9.6069099e-39
-0.022674287 -0.081188574 0.76800001 9.6079903e-39
-0.021211429 -0.081188574 0.76800001 9.6090679e-39
-0.019722857 -0.081082858 0.76700002 9.5179513e-39
-0.018214287 -0.080871433 0.76500005 9.5179541e-39
-0.016757144 -0.080871433 0.76500005 9.6105098e-39
-0.015260001 -0.08066 0.76300001 9.7027083e-39
-0.013806666 -0.08066 0.76300001 9.7030712e-39
-0.012320952 -0.080448568 0.76100004 9.7948997e-39
-0.010857143 -0.080342866 0.76000005 9.7956102e-39
-0.0094095245 -0.080342866 0.76000005 9.8874471e-39
-0.0079619056 -0.080342866 0.76000005 9.9796413e-39
-0.0065142862 -0.080342866 0.76000005 1.0163686e-38
-0.0050533335 -0.080131426 0.75800002 1.0165138e-38
-0.0036095236 -0.080131426 0.75800002 1.0257342e-38
-0.0021657145 -0.080131426 0.75800002 1.0442099e-38
-0.0007219048 -0.080131426 0.75800002 1.062576e-38
0.0007219048 -0.080131426 0.75800002 1.0717587e-38
0.0021657145 -0.080131426 0.75800002 1.0810139e-38
0.0036095236 -0.080131426 0.75800002 1.0902333e-38
0.0050533335 -0.080131426 0.75800002 1.1086007e-38
0.0064971428 -0.080131426 0.75800002 1.1086011e-38
0.0079409527 -0.080131426 0.75800002 1.1177852e-38
0.0093847616 -0.080131426 0.75800002 1.0902353e-38
0.010828571 -0.080131426 0.75800002 1.0718675e-38
0.012304762 -0.080342866 0.76000005 1.0994174e-38
0.013752381 -0.080342866 0.76000005 1.126967e-38
0.015200001 -0.080342866 0.76000005 1.1453329e-38
0.016669523 -0.080448568 0.76100004 1.1727772e-38
0.018119048 -0.080448568 0.76100004 1.2002217e-38
0.019619999 -0.08066 0.76300001 1.2275602e-38
0.022674287 -0.081188574 0.76800001 1.4376367e-38
0.024137143 -0.081188574 0.76800001 1.4559317e-38
0.025666667 -0.0814 0.77000004 1.4742995e-38
0.027133334 -0.0814 0.77000004 1.455969e-38
0.0286 -0.0814 0.77000004 1.4375652e-38
0.030066667 -0.0814 0.77000004 1.4375645e-38
0.031533334 -0.0814 0.77000004 1.4467483e-38
-0.039674286 -0.081594288 0.78600001 1.2993082e-38
-0.038177144 -0.081594288 0.78600001 1.3085614e-38
-0.036586668 -0.08138667 0.78400004 1.3086314e-38
-0.035093337 -0.08138667 0.78400004 1.1984272e-38
-0.033514287 -0.081179053 0.78200006 1.0793263e-38
-0.031942859 -0.080971435 0.78000003 1.0151474e-38
-0.030457145 -0.080971435 0.78000003 9.5118388e-39
-0.028859999 -0.08066 0.77700001 9.6047365e-39
-0.024200002 -0.079933338 0.77000004 9.6065442e-39
-0.022733334 -0.079933338 0.77000004 9.4235976e-39
-0.021211429 -0.079725713 0.76800001 9.3332013e-39
-0.019722857 -0.079621911 0.76700002 9.425041e-39
-0.018261906 -0.079621911 0.76700002 9.4254067e-39
-0.016757144 -0.079414286 0.76500005 9.5172492e-39
-0.015260001 -0.079206668 0.76300001 9.5176136e-39
-0.013806666 -0.079206668 0.76300001 9.6101735e-39
-0.012353334 -0.079206668 0.76300001 9.7030698e-39
-0.010871429 -0.07899905 0.76100004 9.611579e-39
-0.0094219055 -0.07899905 0.76100004 9.5204596e-39
-0.0079619056 -0.078895241 0.76000005 9.7041306e-39
-0.0065142862 -0.078895241 0.76000005 9.9800112e-39
-0.0050533335 -0.078687623 0.75800002 9.9807455e-39
-0.0036095236 -0.078687623 0.75800002 1.0072944e-38
-0.0021657145 -0.078687623 0.75800002 1.0256979e-38
-0.0007219048 -0.078687623 0.75800002 1.0441002e-38
0.0007219048 -0.078687623 0.75800002 1.0441714e-38
0.0021657145 -0.078687623 0.75800002 1.0534272e-38
0.0036095236 -0.078687623 0.75800002 1.0717949e-38
0.0050533335 -0.078687623 0.75800002 1.0901623e-38
0.0064971428 -0.078687623 0.75800002 1.0901267e-38
0.0079409527 -0.078687623 0.75800002 1.0992741e-38
0.0093847616 -0.078687623 0.75800002 1.090198e-38
0.010828571 -0.078687623 0.75800002 1.0903412e-38
0.012304762 -0.078895241 0.76000005 1.0993451e-38
0.013752381 -0.078895241 0.76000005 1.1176747e-38
0.015200001 -0.078895241 0.76000005 1.1451879e-38
0.016669523 -0.07899905 0.76100004 1.1727407e-38
0.018119048 -0.07899905 0.76100004 1.2092977e-38
0.019619999 -0.079206668 0.76300001 1.254896e-38
0.021128573 -0.079414286 0.76500005 1.3368698e-38
0.022644762 -0.079621911 0.76700002 1.4192341e-38
0.024137143 -0.079725713 0.76800001 1.4375646e-38
0.025666667 -0.079933338 0.77000004 1.4558963e-38
0.027133334 -0.079933338 0.77000004 1.4467492e-38
0.0286 -0.079933338 0.77000004 1.4374211e-38
0.030066667 -0.079933338 0.77000004 1.4466756e-38
0.031533334 -0.079933338 0.77000004 1.4466762e-38
-0.039674286 -0.080097146 0.78600001 1.3084552e-38
-0.038177144 -0.080097146 0.78600001 1.3084895e-38
-0.036679998 -0.080097146 0.78600001 1.3085242e-38
-0.035093337 -0.079893336 0.78400004 1.2902278e-38
-0.033600003 -0.079893336 0.78400004 1.2812576e-38
-0.022674287 -0.078262858 0.76800001 9.3314034e-39
-0.021183809 -0.078160949 0.76700002 9.1484527e-39
-0.019722857 -0.078160949 0.76700002 9.2410085e-39
-0.018214287 -0.077957146 0.76500005 9.4250466e-39
-0.016757144 -0.077957146 0.76500005 9.4254151e-39
-0.0153 -0.077957146 0.76500005 9.4254263e-39
-0.013806666 -0.077753328 0.76300001 9.5176318e-39
-0.012353334 -0.077753328 0.76300001 9.6105267e-39
-0.010871429 -0.077549525 0.76100004 9.3357208e-39
-0.0094219055 -0.077549525 0.76100004 9.1524086e-39
-0.0079723811 -0.077549525 0.76100004 9.5204666e-39
-0.0065142862 -0.077447623 0.76000005 9.8878184e-39
-0.0050533335 -0.077243812 0.75800002 9.8885457e-39
-0.0036095236 -0.077243812 0.75800002 9.8889114e-39
-0.0021657145 -0.077243812 0.75800002 1.0073308e-38
-0.0007219048 -0.077243812 0.75800002 1.0349171e-38
0.0007219048 -0.077243812 0.75800002 1.0257691e-38
0.0021657145 -0.077243812 0.75800002 1.0257695e-38
0.0036095236 -0.077243812 0.75800002 1.0441728e-38
0.0050533335 -0.077243812 0.75800002 1.0716878e-38
0.0064971428 -0.077243812 0.75800002 1.0808715e-38
0.0079409527 -0.077243812 0.75800002 1.0900547e-38
0.0093847616 -0.077243812 0.75800002 1.0993813e-38
0.010828571 -0.077243812 0.75800002 1.1085285e-38
0.012304762 -0.077447623 0.76000005 1.1084924e-38
0.013752381 -0.077447623 0.76000005 1.1084557e-38
0.01522 -0.077549525 0.76100004 1.1359697e-38
0.016669523 -0.077549525 0.76100004 1.1726702e-38
0.018166667 -0.077753328 0.76300001 1.2275583e-38
0.019619999 -0.077753328 0.76300001 1.2913795e-38
0.021128573 -0.077957146 0.76500005 1.3459095e-38
0.022644762 -0.078160949 0.76700002 1.4100147e-38
0.024137143 -0.078262858 0.76800001 1.4284532e-38
0.025666667 -0.078466676 0.77000004 1.446677e-38
0.027133334 -0.078466676 0.77000004 1.4467131e-38
0.0286 -0.078466676 0.77000004 1.4466767e-38
0.030144762 -0.078670479 0.77200001 1.4466763e-38
0.031615239 -0.078670479 0.77200001 1.45586e-38
-0.038177144 -0.078599997 0.78600001 1.317673e-38
-0.036679998 -0.078599997 0.78600001 1.345223e-38
-0.035093337 -0.078400008 0.78400004 1.3177435e-38
-0.033600003 -0.078400008 0.78400004 1.299518e-38
-0.021211429 -0.076799996 0.76800001 8.688199e-39
-0.019722857 -0.076700002 0.76700002 8.9644244e-39
-0.018214287 -0.076500006 0.76500005 9.2406581e-39
-0.016757144 -0.076500006 0.76500005 9.3328636e-39
-0.0153 -0.076500006 0.76500005 9.4254319e-39
-0.013806666 -0.076299995 0.76300001 9.6091198e-39
-0.012353334 -0.076299995 0.76300001 9.8853255e-39
-0.010871429 -0.076100007 0.76100004 9.6101595e-39
-0.0094219055 -0.076100007 0.76100004 9.3353691e-39
-0.0079619056 -0.076000005 0.76000005 9.611593e-39
-0.0065142862 -0.076000005 0.76000005 9.8878198e-39
-0.0050666668 -0.076000005 0.76000005 9.8878226e-39
-0.0036190478 -0.076000005 0.76000005 9.9796693e-39
-0.0021657145 -0.075800002 0.75800002 1.0255546e-38
-0.0007219048 -0.075800002 0.75800002 1.053177e-38
0.0007219048 -0.075800002 0.75800002 1.0256623e-38
0.0021657145 -0.075800002 0.75800002 9.981477e-39
0.0036095236 -0.075800002 0.75800002 1.0256985e-38
0.0050533335 -0.075800002 0.75800002 1.0624687e-38
0.0064971428 -0.075800002 0.75800002 1.0716524e-38
0.0079409527 -0.075800002 0.75800002 1.0808711e-38
0.0093847616 -0.075800002 0.75800002 1.090054e-38
0.010857143 -0.076000005 0.76000005 1.099273e-38
0.012304762 -0.076000005 0.76000005 1.0992367e-38
0.013752381 -0.076000005 0.76000005 1.1084204e-38
0.01522 -0.076100007 0.76100004 1.1358994e-38
0.016669523 -0.076100007 0.76100004 1.1634161e-38
0.018166667 -0.076299995 0.76300001 1.2548231e-38
0.019619999 -0.076299995 0.76300001 1.3370464e-38
0.021128573 -0.076500006 0.76500005 1.3734238e-38
0.022674287 -0.076799996 0.76800001 1.4099788e-38
0.024200002 -0.077000007 0.77000004 1.4283102e-38
0.025666667 -0.077000007 0.77000004 1.4374579e-38
0.027133334 -0.077000007 0.77000004 1.4374937e-38
0.028674286 -0.077200003 0.77200001 1.446713e-38
0.030144762 -0.077200003 0.77200001 1.4558964e-38
-0.019722857 -0.075239047 0.76700002 8.5963467e-39
-0.018261906 -0.075239047 0.76700002 9.0562571e-39
-0.016757144 -0.075042859 0.76500005 9.2406609e-39
-0.0153 -0.075042859 0.76500005 9.5169017e-39
-0.013842857 -0.075042859 0.76500005 9.7927851e-39
-0.012353334 -0.07484667 0.76300001 1.0160108e-38
-0.010899999 -0.07484667 0.76300001 9.793106e-39
-0.0094219055 -0.074650481 0.76100004 9.5183212e-39
-0.0079619056 -0.074552387 0.76000005 9.7027153e-39
-0.0065142862 -0.074552387 0.76000005 9.8867506e-39
-0.0050666668 -0.074552387 0.76000005 9.9789504e-39
-0.0036190478 -0.074552387 0.76000005 1.0070789e-38
-0.0021657145 -0.074356191 0.75800002 1.0346299e-38
-0.0007219048 -0.074356191 0.75800002 1.0714718e-38
0.0007219048 -0.074356191 0.75800002 1.0256256e-38
0.0021657145 -0.074356191 0.75800002 9.7974403e-39
0.0036095236 -0.074356191 0.75800002 1.0165503e-38
0.0050533335 -0.074356191 0.75800002 1.0532486e-38
0.0064971428 -0.074356191 0.75800002 1.0624323e-38
0.0079619056 -0.074552387 0.76000005 1.0808347e-38
0.0094095245 -0.074552387 0.76000005 1.08087e-38
0.010857143 -0.074552387 0.76000005 1.0900177e-38
0.012304762 -0.074552387 0.76000005 1.0992012e-38
0.013770477 -0.074650481 0.76100004 1.117533e-38
0.01522 -0.074650481 0.76100004 1.1358648e-38
0.016669523 -0.074650481 0.76100004 1.163166e-38
0.018166667 -0.07484667 0.76300001 1.2729399e-38
0.019619999 -0.07484667 0.76300001 1.3919683e-38
0.021128573 -0.075042859 0.76500005 1.4009378e-38
0.022674287 -0.075337149 0.76800001 1.4191618e-38
0.024200002 -0.075533338 0.77000004 1.4282739e-38
0.025733333 -0.075729519 0.77200001 1.4374576e-38
0.027203809 -0.075729519 0.77200001 1.4374936e-38
0.028674286 -0.075729519 0.77200001 1.4466411e-38
0.030183813 -0.075827621 0.77300006 1.4650081e-38
-0.018261906 -0.0737781 0.76700002 9.055527e-39
-0.016800953 -0.0737781 0.76700002 9.1484597e-39
-0.0153 -0.073585719 0.76500005 9.3328664e-39
-0.013842857 -0.073585719 0.76500005 9.5169143e-39
-0.012353334 -0.073393337 0.76300001 9.7009244e-39
-0.010899999 -0.073393337 0.76300001 9.5172352e-39
-0.0094219055 -0.073200949 0.76100004 9.426127e-39
-0.0079723811 -0.073200949 0.76100004 9.518331e-39
-0.0065142862 -0.073104762 0.76000005 9.7027279e-39
-0.0050666668 -0.073104762 0.76000005 9.7945718e-39
-0.0036190478 -0.073104762 0.76000005 9.9782386e-39
-0.0021714286 -0.073104762 0.76000005 1.0162266e-38
-0.0007219048 -0.07291238 0.75800002 1.0346651e-38
0.0007219048 -0.07291238 0.75800002 1.0163338e-38
0.0021657145 -0.07291238 0.75800002 9.9803868e-39
0.0036095236 -0.07291238 0.75800002 1.0164421e-38
0.0050666668 -0.073104762 0.76000005 1.0440286e-38
0.0064971428 -0.07291238 0.75800002 1.0532121e-38
0.0079619056 -0.073104762 0.76000005 1.0624311e-38
0.0094095245 -0.073104762 0.76000005 1.0716143e-38
0.010857143 -0.073104762 0.76000005 1.0808341e-38
0.012320952 -0.073200949 0.76100004 1.0807987e-38
0.013770477 -0.073200949 0.76100004 1.0898756e-38
0.01522 -0.073200949 0.76100004 1.1448702e-38
0.016669523 -0.073200949 0.76100004 1.1996502e-38
0.018166667 -0.073393337 0.76300001 1.3003838e-38
0.019619999 -0.073393337 0.76300001 1.4010085e-38
0.022674287 -0.073874287 0.76800001 1.4191971e-38
0.024137143 -0.073874287 0.76800001 1.4375648e-38
0.025666667 -0.074066669 0.77000004 1.455968e-38
0.027133334 -0.074066669 0.77000004 1.4467848e-38
0.028674286 -0.07425905 0.77200001 1.4376369e-38
0.030144762 -0.07425905 0.77200001 1.4466769e-38
-0.018285714 -0.072411425 0.76800001 9.0548235e-39
-0.016800953 -0.072317138 0.76700002 9.1484653e-39
-0.01534 -0.072317138 0.76700002 9.240326e-39
-0.013842857 -0.072128579 0.76500005 9.2403498e-39
-0.012353334 -0.071940005 0.76300001 9.3332209e-39
-0.010899999 -0.071940005 0.76300001 9.3335376e-39
-0.0094219055 -0.071751431 0.76100004 9.3339159e-39
-0.0079723811 -0.071751431 0.76100004 9.4261298e-39
-0.0065142862 -0.071657151 0.76000005 9.5179695e-39
-0.0050666668 -0.071657151 0.76000005 9.7020048e-39
-0.0036190478 -0.071657151 0.76000005 9.8860317e-39
-0.0021714286 -0.071657151 0.76000005 9.8863877e-39
-0.00072380959 -0.071657151 0.76000005 9.978942e-39
0.0007219048 -0.071468569 0.75800002 1.0071139e-38
0.0021657145 -0.071468569 0.75800002 1.0164051e-38
0.0036095236 -0.071468569 0.75800002 1.0255888e-38
0.0050666668 -0.071657151 0.76000005 1.034808e-38
0.0065142862 -0.071657151 0.76000005 1.0440275e-38
0.0079619056 -0.071657151 0.76000005 1.0532107e-38
0.0094095245 -0.071657151 0.76000005 1.062394e-38
0.010871429 -0.071751431 0.76100004 1.0715785e-38
0.012320952 -0.071751431 0.76100004 1.0715797e-38
0.013770477 -0.071751431 0.76100004 1.0714371e-38
0.01522 -0.071751431 0.76100004 1.1539109e-38
0.016713332 -0.071940005 0.76300001 1.2362772e-38
0.018166667 -0.071940005 0.76300001 1.3278271e-38
0.019619999 -0.071940005 0.76300001 1.4193752e-38
0.022674287 -0.072411425 0.76800001 1.4283444e-38
0.024137143 -0.072411425 0.76800001 1.4467843e-38
0.025666667 -0.0726 0.77000004 1.4743358e-38
0.027133334 -0.0726 0.77000004 1.4560053e-38
0.028674286 -0.072788574 0.77200001 1.4376016e-38
0.030144762 -0.072788574 0.77200001 1.419198e-38
-0.018285714 -0.070948571 0.76800001 8.962286e-39
-0.015360001 -0.070948571 0.76800001 9.2403386e-39
-0.013879048 -0.070856191 0.76700002 9.2407282e-39
-0.012353334 -0.070486665 0.76300001 9.3332167e-39
-0.010899999 -0.070486665 0.76300001 9.3331536e-39
-0.0094219055 -0.070301905 0.76100004 9.4250186e-39
-0.0079723811 -0.070301905 0.76100004 9.4261242e-39
-0.0065142862 -0.070209526 0.76000005 9.4261242e-39
-0.0050666668 -0.070209526 0.76000005 9.6101553e-39
-0.0036190478 -0.070209526 0.76000005 9.7941836e-39
-0.0021714286 -0.070209526 0.76000005 9.7948997e-39
-0.00072380959 -0.070209526 0.76000005 9.8870995e-39
0.00072380959 -0.070209526 0.76000005 9.9792994e-39
0.0021657145 -0.070024759 0.75800002 1.007221e-38
0.0036190478 -0.070209526 0.76000005 1.0164044e-38
0.0050666668 -0.070209526 0.76000005 1.0255876e-38
0.0065142862 -0.070209526 0.76000005 1.0348069e-38
0.0079619056 -0.070209526 0.76000005 1.0440262e-38
0.0094219055 -0.070301905 0.76100004 1.0531737e-38
0.010871429 -0.070301905 0.76100004 1.0623231e-38
0.012320952 -0.070301905 0.76100004 1.0715442e-38
0.013770477 -0.070301905 0.76100004 1.0897689e-38
0.015260001 -0.070486665 0.76300001 1.190574e-38
0.016713332 -0.070486665 0.76300001 1.2912715e-38
0.018166667 -0.070486665 0.76300001 1.3461229e-38
0.019671429 -0.070671432 0.76500005 1.4010078e-38
0.022674287 -0.070948571 0.76800001 1.4191604e-38
0.024200002 -0.071133338 0.77000004 1.4375293e-38
0.025733333 -0.071318097 0.77200001 1.44675e-38
0.027203809 -0.071318097 0.77200001 1.4375677e-38
0.028674286 -0.071318097 0.77200001 1.4284186e-38
-0.015360001 -0.069485709 0.76800001 9.2403232e-39
-0.012353334 -0.069033332 0.76300001 9.4247005e-39
-0.010899999 -0.069033332 0.76300001 9.4246668e-39
-0.0094219055 -0.068852387 0.76100004 9.517238e-39
-0.0079723811 -0.068852387 0.76100004 9.4261382e-39
-0.0065142862 -0.068761908 0.76000005 9.4261298e-39
-0.0050666668 -0.068761908 0.76000005 9.5186743e-39
-0.0036190478 -0.068761908 0.76000005 9.7023439e-39
-0.0021714286 -0.068761908 0.76000005 9.7034201e-39
-0.00072380959 -0.068761908 0.76000005 9.7952598e-39
0.00072380959 -0.068761908 0.76000005 9.8878184e-39
0.0021714286 -0.068761908 0.76000005 9.9796553e-39
0.0036190478 -0.068761908 0.76000005 1.0071494e-38
0.0050666668 -0.068761908 0.76000005 1.0163684e-38
0.0065228576 -0.068852387 0.76100004 1.0255875e-38
0.0079723811 -0.068852387 0.76100004 1.0439549e-38
0.0094219055 -0.068852387 0.76100004 1.0531386e-38
0.010899999 -0.069033332 0.76300001 1.0623237e-38
0.012353334 -0.069033332 0.76300001 1.0806923e-38
0.013806666 -0.069033332 0.76300001 1.1080287e-38
0.015260001 -0.069033332 0.76300001 1.2272366e-38
0.016713332 -0.069033332 0.76300001 1.3554844e-38
0.018166667 -0.069033332 0.76300001 1.3736373e-38
0.019671429 -0.069214284 0.76500005 1.391753e-38
0.022733334 -0.069666669 0.77000004 1.4191967e-38
0.024262857 -0.069847621 0.77200001 1.4190901e-38
0.025733333 -0.069847621 0.77200001 1.4283821e-38
0.027203809 -0.069847621 0.77200001 1.428383e-38
0.028674286 -0.069847621 0.77200001 1.4284181e-38
-0.012353334 -0.06758 0.76300001 9.240319e-39
-0.010899999 -0.06758 0.76300001 9.3328678e-39
-0.0094466675 -0.06758 0.76300001 9.5179807e-39
-0.0079723811 -0.067402862 0.76100004 9.4261536e-39
-0.0065142862 -0.06731429 0.76000005 9.3342999e-39
-0.0050666668 -0.06731429 0.76000005 9.4264759e-39
-0.0036190478 -0.06731429 0.76000005 9.6105056e-39
-0.0021714286 -0.06731429 0.76000005 9.610507e-39
-0.00072380959 -0.06731429 0.76000005 9.7027041e-39
0.00072380959 -0.06731429 0.76000005 9.703067e-39
0.0021714286 -0.06731429 0.76000005 9.7952668e-39
0.0036190478 -0.06731429 0.76000005 9.8863905e-39
0.0050733336 -0.067402862 0.76100004 9.8860275e-39
0.0065228576 -0.067402862 0.76100004 1.0070412e-38
0.0079723811 -0.067402862 0.76100004 1.0255165e-38
0.0094466675 -0.06758 0.76300001 1.0438482e-38
0.010899999 -0.06758 0.76300001 1.0621809e-38
0.012353334 -0.06758 0.76300001 1.0804418e-38
0.013806666 -0.06758 0.76300001 1.0987379e-38
0.015260001 -0.06758 0.76300001 1.2363127e-38
0.016713332 -0.06758 0.76300001 1.3737796e-38
0.018214287 -0.067757145 0.76500005 1.3827129e-38
0.019671429 -0.067757145 0.76500005 1.3916818e-38
0.022733334 -0.0682 0.77000004 1.4284167e-38
0.024262857 -0.068377137 0.77200001 1.4283809e-38
0.025733333 -0.068377137 0.77200001 1.4283814e-38
0.027203809 -0.068377137 0.77200001 1.4191984e-38
-0.023205714 -0.068120003 0.78600001 9.69447e-39
-0.021653336 -0.067946665 0.78400004 9.5122046e-39
-0.010899999 -0.066126667 0.76300001 9.2410281e-39
-0.0094466675 -0.066126667 0.76300001 9.516536e-39
-0.0079723811 -0.065953337 0.76100004 9.425062e-39
-0.0065228576 -0.065953337 0.76100004 9.3342803e-39
-0.0050733336 -0.065953337 0.76100004 9.425736e-39
-0.0036238097 -0.065953337 0.76100004 9.5179415e-39
-0.0021714286 -0.065866672 0.76000005 9.5186701e-39
-0.00072380959 -0.065866672 0.76000005 9.6101497e-39
0.00072380959 -0.065866672 0.76000005 9.6097952e-39
0.0021714286 -0.065866672 0.76000005 9.701995e-39
0.0036190478 -0.065866672 0.76000005 9.7027181e-39
0.0050733336 -0.065953337 0.76100004 9.7023551e-39
0.0065228576 -0.065953337 0.76100004 9.8856646e-39
0.007993333 -0.066126667 0.76300001 1.0069703e-38
0.0094466675 -0.066126667 0.76300001 1.0345937e-38
0.010899999 -0.066126667 0.76300001 1.0712572e-38
0.012353334 -0.066126667 0.76300001 1.0803703e-38
0.013806666 -0.066126667 0.76300001 1.0986662e-38
0.015260001 -0.066126667 0.76300001 1.2454243e-38
0.016713332 -0.066126667 0.76300001 1.4012936e-38
0.018214287 -0.066300005 0.76500005 1.4010066e-38
0.019671429 -0.066300005 0.76500005 1.4008293e-38
0.022733334 -0.066733338 0.77000004 1.4376728e-38
0.024262857 -0.066906668 0.77200001 1.4284887e-38
-0.024702856 -0.066622861 0.78600001 9.8777795e-39
-0.023205714 -0.066622861 0.78600001 9.6941085e-39
-0.021653336 -0.06645333 0.78400004 9.604026e-39
-0.015500002 -0.06569048 0.77500004 8.6885676e-39
-0.012385715 -0.064842865 0.76500005 9.056634e-39
-0.010928571 -0.064842865 0.76500005 9.1484709e-39
-0.0094466675 -0.064673327 0.76300001 9.2406609e-39
-0.007993333 -0.064673327 0.76300001 9.2413756e-39
-0.0065228576 -0.064503811 0.76100004 9.3342621e-39
-0.0050733336 -0.064503811 0.76100004 9.3335194e-39
-0.0036238097 -0.064503811 0.76100004 9.4253759e-39
-0.0021742857 -0.064503811 0.76100004 9.425757e-39
-0.00072476192 -0.064503811 0.76100004 9.5179541e-39
0.00072380959 -0.064419053 0.76000005 9.4261228e-39
0.0021714286 -0.064419053 0.76000005 9.3346516e-39
0.0036238097 -0.064503811 0.76100004 9.4272102e-39
0.0050866669 -0.064673327 0.76300001 9.6108784e-39
0.00654 -0.064673327 0.76300001 9.7027125e-39
0.007993333 -0.064673327 0.76300001 9.8863947e-39
0.0094466675 -0.064673327 0.76300001 1.0345226e-38
0.010899999 -0.064673327 0.76300001 1.0712219e-38
0.012353334 -0.064673327 0.76300001 1.1078853e-38
0.013806666 -0.064673327 0.76300001 1.1353647e-38
0.015260001 -0.064673327 0.76300001 1.2821943e-38
0.016713332 -0.064673327 0.76300001 1.4196239e-38
0.018166667 -0.064673327 0.76300001 1.4193004e-38
0.019671429 -0.064842865 0.76500005 1.4191964e-38
-0.024702856 -0.065125719 0.78600001 9.8774362e-39
-0.023205714 -0.065125719 0.78600001 9.7859692e-39
-0.021653336 -0.064960003 0.78400004 9.6951707e-39
-0.020108573 -0.064794287 0.78200006 9.4207026e-39
-0.018571429 -0.064628571 0.78000003 9.2374085e-39
-0.015500002 -0.064214289 0.77500004 8.7800443e-39
-0.010928571 -0.063385718 0.76500005 9.0562795e-39
-0.0094714295 -0.063385718 0.76500005 8.9651615e-39
-0.007993333 -0.063220002 0.76300001 9.1495485e-39
-0.00654 -0.063220002 0.76300001 9.3332027e-39
-0.0050733336 -0.063054286 0.76100004 9.3331845e-39
-0.0036238097 -0.063054286 0.76100004 9.333553e-39
-0.0021742857 -0.063054286 0.76100004 9.333923e-39
-0.00072476192 -0.063054286 0.76100004 9.4261228e-39
0.00072476192 -0.063054286 0.76100004 9.2424588e-39
0.0021742857 -0.063054286 0.76100004 9.0591578e-39
0.0036238097 -0.063054286 0.76100004 9.2435574e-39
0.0050866669 -0.063220002 0.76300001 9.5186954e-39
0.00654 -0.063220002 0.76300001 9.6105211e-39
0.007993333 -0.063220002 0.76300001 9.7938459e-39
0.0094466675 -0.063220002 0.76300001 1.0253036e-38
0.010899999 -0.063220002 0.76300001 1.0804772e-38
0.012353334 -0.063220002 0.76300001 1.1264673e-38
0.013806666 -0.063220002 0.76300001 1.1813183e-38
0.015260001 -0.063220002 0.76300001 1.3097812e-38
0.016713332 -0.063220002 0.76300001 1.4471398e-38
0.018166667 -0.063220002 0.76300001 1.4376334e-38
-0.024702856 -0.063628569 0.78600001 9.7856175e-39
-0.023146667 -0.063466676 0.78400004 9.8778299e-39
-0.021598097 -0.063304767 0.78200006 9.9703465e-39
-0.020057144 -0.063142858 0.78000003 9.6036869e-39
-0.018571429 -0.063142858 0.78000003 9.1455898e-39
-0.01702 -0.062899999 0.77700001 8.8708064e-39
-0.015500002 -0.062738098 0.77500004 8.5963733e-39
-0.012418096 -0.062090475 0.76700002 9.0562739e-39
-0.010957143 -0.062090475 0.76700002 8.8729714e-39
-0.0094714295 -0.061928574 0.76500005 8.6896606e-39
-0.007993333 -0.061766669 0.76300001 8.8733344e-39
-0.00654 -0.061766669 0.76300001 9.1491898e-39
-0.0050866669 -0.061766669 0.76300001 9.1498974e-39
-0.0036333334 -0.061766669 0.76300001 9.2420903e-39
-0.0021742857 -0.061604768 0.76100004 9.3339244e-39
-0.00072476192 -0.061604768 0.76100004 9.426127e-39
0.00072476192 -0.061604768 0.76100004 9.3343013e-39
0.0021742857 -0.061604768 0.76100004 9.2432001e-39
0.0036333334 -0.061766669 0.76300001 9.3346951e-39
0.0050866669 -0.061766669 0.76300001 9.5183478e-39
0.00654 -0.061766669 0.76300001 9.6098078e-39
0.007993333 -0.061766669 0.76300001 9.7016559e-39
0.0094466675 -0.061766669 0.76300001 1.0069371e-38
0.010899999 -0.061766669 0.76300001 1.0532135e-38
0.012353334 -0.061766669 0.76300001 1.1447981e-38
0.013806666 -0.061766669 0.76300001 1.2364913e-38
0.0153 -0.061928574 0.76500005 1.3925772e-38
0.016757144 -0.061928574 0.76500005 1.5481601e-38
0.018166667 -0.061766669 0.76300001 1.474262e-38
0.019619999 -0.061766669 0.76300001 1.4099418e-38
-0.024702856 -0.062131427 0.78600001 9.7852476e-39
-0.023146667 -0.061973337 0.78400004 1.0061484e-38
-0.021598097 -0.061815243 0.78200006 1.0337684e-38
-0.020057144 -0.061657146 0.78000003 9.6944532e-39
-0.018547619 -0.061578099 0.77900004 9.1452465e-39
-0.01702 -0.061419997 0.77700001 8.7786346e-39
-0.015500002 -0.061261907 0.77500004 8.4123562e-39
-0.012434285 -0.060708571 0.76800001 8.9647817e-39
-0.010971429 -0.060708571 0.76800001 8.6896213e-39
-0.0094961906 -0.060629524 0.76700002 8.5056084e-39
-0.0080142869 -0.06047143 0.76500005 8.6892962e-39
-0.0065571428 -0.06047143 0.76500005 8.9651657e-39
-0.0050866669 -0.060313337 0.76300001 9.0584403e-39
-0.0036333334 -0.060313337 0.76300001 9.2417441e-39
-0.0021800001 -0.060313337 0.76300001 9.3335698e-39
-0.00072666665 -0.060313337 0.76300001 9.5176066e-39
0.00072666665 -0.060313337 0.76300001 9.5179723e-39
0.0021800001 -0.060313337 0.76300001 9.5179807e-39
0.0036333334 -0.060313337 0.76300001 9.5179891e-39
0.0050866669 -0.060313337 0.76300001 9.5179695e-39
0.00654 -0.060313337 0.76300001 9.5179513e-39
0.007993333 -0.060313337 0.76300001 9.6098078e-39
0.0094466675 -0.060313337 0.76300001 9.8856954e-39
0.010899999 -0.060313337 0.76300001 1.0253392e-38
0.012353334 -0.060313337 0.76300001 1.1539804e-38
0.013842857 -0.06047143 0.76500005 1.2917357e-38
0.0153 -0.06047143 0.76500005 1.4662251e-38
0.016757144 -0.06047143 0.76500005 1.649395e-38
0.018214287 -0.06047143 0.76500005 1.5200731e-38
-0.024702856 -0.060634285 0.78600001 9.3260603e-39
-0.023146667 -0.060480002 0.78400004 9.6026486e-39
-0.021598097 -0.060325719 0.78200006 9.9703381e-39
-0.020057144 -0.060171433 0.78000003 9.6029849e-39
-0.018547619 -0.060094289 0.77900004 9.2370974e-39
-0.01702 -0.059939999 0.77700001 8.8704925e-39
-0.015500002 -0.059785716 0.77500004 8.5956825e-39
-0.010971429 -0.059245713 0.76800001 8.7810617e-39
-0.0094961906 -0.059168573 0.76700002 8.6888983e-39
-0.0080352379 -0.059168573 0.76700002 8.8726015e-39
-0.0065571428 -0.059014291 0.76500005 9.0570082e-39
-0.0051000006 -0.059014291 0.76500005 9.1488619e-39
-0.0036428573 -0.059014291 0.76500005 9.2410393e-39
-0.0021857144 -0.059014291 0.76500005 9.332858e-39
-0.00072857144 -0.059014291 0.76500005 9.4250564e-39
0.00072666665 -0.05886 0.76300001 9.4250606e-39
0.0021857144 -0.059014291 0.76500005 9.4250592e-39
0.0036333334 -0.05886 0.76300001 9.4254179e-39
0.0051000006 -0.059014291 0.76500005 9.425757e-39
0.0065571428 -0.059014291 0.76500005 9.5179317e-39
0.0080142869 -0.059014291 0.76500005 9.7019908e-39
0.0094714295 -0.059014291 0.76500005 9.8856912e-39
0.010928571 -0.059014291 0.76500005 1.0161549e-38
0.012385715 -0.059014291 0.76500005 1.2274476e-38
0.013842857 -0.059014291 0.76500005 1.4387796e-38
0.0153 -0.059014291 0.76500005 1.5855398e-38
0.016800953 -0.059168573 0.76700002 1.7322986e-38
0.018214287 -0.059014291 0.76500005 1.5567724e-38
0.019671429 -0.059014291 0.76500005 1.3822496e-38
0.026133334 -0.060480002 0.78400004 1.4558264e-38
-0.023146667 -0.058986671 0.78400004 9.2356443e-39
-0.021598097 -0.058836192 0.78200006 9.6951693e-39
-0.020057144 -0.058685716 0.78000003 9.5118444e-39
-0.018547619 -0.05861048 0.77900004 9.3289105e-39
-0.017063811 -0.05861048 0.77900004 9.0544998e-39
-0.015539999 -0.058459997 0.77700001 8.870819e-39
-0.012466667 -0.057933334 0.77000004 8.87187e-39
-0.011 -0.057933334 0.77000004 8.8725721e-39
-0.0094961906 -0.057707619 0.76700002 8.9644216e-39
-0.0080352379 -0.057707619 0.76700002 9.0562711e-39
-0.0065571428 -0.057557147 0.76500005 9.1481178e-39
-0.0051000006 -0.057557147 0.76500005 9.148129e-39
-0.0036428573 -0.057557147 0.76500005 9.2399547e-39
-0.0021857144 -0.057557147 0.76500005 9.240305e-39
-0.00072857144 -0.057557147 0.76500005 9.3325104e-39
0.00072857144 -0.057557147 0.76500005 9.332879e-39
0.0021857144 -0.057557147 0.76500005 9.4247103e-39
0.0036428573 -0.057557147 0.76500005 9.3332293e-39
0.0051000006 -0.057557147 0.76500005 9.3328608e-39
0.0065571428 -0.057557147 0.76500005 9.6083574e-39
0.0080142869 -0.057557147 0.76500005 9.8845898e-39
0.0094714295 -0.057557147 0.76500005 9.9775099e-39
0.010928571 -0.057557147 0.76500005 1.007005e-38
0.012385715 -0.057557147 0.76500005 1.301272e-38
0.013842857 -0.057557147 0.76500005 1.5953283e-38
0.01534 -0.057707619 0.76700002 1.7057137e-38
0.016800953 -0.057707619 0.76700002 1.8239529e-38
0.018214287 -0.057557147 0.76500005 1.5934685e-38
0.024640001 -0.058986671 0.78400004 1.4190567e-38
0.0262 -0.059137143 0.78600001 1.4282751e-38
0.027697144 -0.059137143 0.78600001 1.4191263e-38
-0.023146667 -0.057493336 0.78400004 9.6018905e-39
-0.021653336 -0.057493336 0.78400004 9.6958657e-39
-0.020057144 -0.0572 0.78000003 9.5114647e-39
-0.018571429 -0.0572 0.78000003 9.2374113e-39
-0.017063811 -0.057126667 0.77900004 9.0541187e-39
-0.015539999 -0.056980003 0.77700001 8.8708078e-39
-0.012466667 -0.056466669 0.77000004 8.7793353e-39
-0.011 -0.056466669 0.77000004 8.8715309e-39
-0.0095085716 -0.05632 0.76800001 8.8718854e-39
-0.0080352379 -0.056246668 0.76700002 8.9640754e-39
-0.0065742861 -0.056246668 0.76700002 9.1481094e-39
-0.0051000006 -0.056100003 0.76500005 9.1481136e-39
-0.0036428573 -0.056100003 0.76500005 9.2403064e-39
-0.0021857144 -0.056100003 0.76500005 9.2403064e-39
-0.00072857144 -0.056100003 0.76500005 9.2403232e-39
0.00072857144 -0.056100003 0.76500005 9.24034e-39
0.0021857144 -0.056100003 0.76500005 9.3321671e-39
0.0036428573 -0.056100003 0.76500005 9.3318014e-39
0.0051000006 -0.056100003 0.76500005 9.3318014e-39
0.0065571428 -0.056100003 0.76500005 9.6076666e-39
0.0080142869 -0.056100003 0.76500005 9.8835192e-39
0.0094714295 -0.056100003 0.76500005 9.8849415e-39
0.010928571 -0.056100003 0.76500005 9.9785511e-39
0.012418096 -0.056246668 0.76700002 1.3657692e-38
0.013879048 -0.056246668 0.76700002 1.7240036e-38
0.01534 -0.056246668 0.76700002 1.7702484e-38
0.016822856 -0.05632 0.76800001 1.8237719e-38
0.018261906 -0.056246668 0.76700002 1.6024704e-38
0.024640001 -0.057493336 0.78400004 1.4191638e-38
0.026133334 -0.057493336 0.78400004 1.4375299e-38
0.027697144 -0.057639997 0.78600001 1.4375289e-38
-0.020057144 -0.055714291 0.78000003 9.5115095e-39
-0.018547619 -0.055642858 0.77900004 9.2370778e-39
-0.017063811 -0.055642858 0.77900004 9.0534054e-39
-0.015539999 -0.055500001 0.77700001 8.9619329e-39
-0.012466667 -0.055000003 0.77000004 8.7789891e-39
-0.011 -0.055000003 0.77000004 8.7793549e-39
-0.0095085716 -0.054857146 0.76800001 8.8715337e-39
-0.0080352379 -0.054785714 0.76700002 8.9640698e-39
-0.0065742861 -0.054785714 0.76700002 9.1477436e-39
-0.0051000006 -0.05464286 0.76500005 9.1481038e-39
-0.0036428573 -0.05464286 0.76500005 9.240298e-39
-0.0021857144 -0.05464286 0.76500005 9.2406567e-39
-0.00072857144 -0.05464286 0.76500005 9.2399547e-39
0.00072857144 -0.05464286 0.76500005 9.2399701e-39
0.0021914286 -0.054785714 0.76700002 9.240319e-39
0.003652381 -0.054785714 0.76700002 9.3314272e-39
0.0051133335 -0.054785714 0.76700002 9.4236285e-39
0.0065742861 -0.054785714 0.76700002 9.6076666e-39
0.0080352379 -0.054785714 0.76700002 9.8831633e-39
0.0094961906 -0.054785714 0.76700002 9.8820773e-39
0.010957143 -0.054785714 0.76700002 9.9782148e-39
0.012418096 -0.054785714 0.76700002 1.4302731e-38
0.013879048 -0.054785714 0.76700002 1.8618644e-38
0.015360001 -0.054857146 0.76800001 1.8439998e-38
0.016822856 -0.054857146 0.76800001 1.8233389e-38
0.018285714 -0.054857146 0.76800001 1.6115095e-38
0.024640001 -0.056000002 0.78400004 1.4284907e-38
0.0262 -0.056142855 0.78600001 1.4560047e-38
0.027697144 -0.056142855 0.78600001 1.4559683e-38
-0.020057144 -0.054228574 0.78000003 9.5108369e-39
-0.018571429 -0.054228574 0.78000003 9.2367443e-39
-0.017063811 -0.054159053 0.77900004 9.0530523e-39
-0.015539999 -0.054019999 0.77700001 8.8697456e-39
-0.011 -0.053533334 0.77000004 8.778657e-39
-0.0095085716 -0.053394284 0.76800001 8.871182e-39
-0.0080457143 -0.053394284 0.76800001 8.8718714e-39
-0.0065742861 -0.053324763 0.76700002 8.9640656e-39
-0.0051133335 -0.053324763 0.76700002 9.0559011e-39
-0.003652381 -0.053324763 0.76700002 9.1484541e-39
-0.0021914286 -0.053324763 0.76700002 9.1480968e-39
-0.00073047623 -0.053324763 0.76700002 9.1481108e-39
0.00073047623 -0.053324763 0.76700002 9.1481248e-39
0.0021914286 -0.053324763 0.76700002 9.1484709e-39
0.003652381 -0.053324763 0.76700002 9.2402938e-39
0.0051133335 -0.053324763 0.76700002 9.4239802e-39
0.0065742861 -0.053324763 0.76700002 9.6076666e-39
0.0080352379 -0.053324763 0.76700002 9.8831661e-39
0.0094961906 -0.053324763 0.76700002 9.7906061e-39
0.010957143 -0.053324763 0.76700002 9.7942075e-39
0.012434285 -0.053394284 0.76800001 1.4485365e-38
0.013897142 -0.053394284 0.76800001 1.9262927e-38
0.015360001 -0.053394284 0.76800001 1.871403e-38
0.016866667 -0.053533334 0.77000004 1.8137225e-38
0.018333334 -0.053533334 0.77000004 1.5750973e-38
0.019851428 -0.053672384 0.77200001 1.3272876e-38
0.021349525 -0.05374191 0.77300006 1.3364381e-38
0.024577145 -0.054367624 0.78200006 1.3640622e-38
0.026133334 -0.054506667 0.78400004 1.3825725e-38
-0.023205714 -0.053148571 0.78600001 9.4160418e-39
-0.021708572 -0.053148571 0.78600001 9.6930155e-39
-0.018571429 -0.052742857 0.78000003 9.3281958e-39
-0.017063811 -0.05267524 0.77900004 9.052311e-39
-0.015539999 -0.052540001 0.77700001 8.8693673e-39
-0.012499048 -0.052201904 0.77200001 8.7782675e-39
-0.011 -0.052066669 0.77000004 8.7779186e-39
-0.0095333336 -0.052066669 0.77000004 8.870812e-39
-0.0080457143 -0.05193143 0.76800001 8.87187e-39
-0.0065742861 -0.051863808 0.76700002 8.8718714e-39
-0.0051133335 -0.051863808 0.76700002 8.9637083e-39
-0.003652381 -0.051863808 0.76700002 9.0559081e-39
-0.0021914286 -0.051863808 0.76700002 9.0562725e-39
-0.00073047623 -0.051863808 0.76700002 9.1481108e-39
0.00073047623 -0.051863808 0.76700002 9.1488324e-39
0.0021942856 -0.05193143 0.76800001 9.148831e-39
0.0036571429 -0.05193143 0.76800001 9.2406651e-39
0.0051199999 -0.05193143 0.76800001 9.4239858e-39
0.0065828571 -0.05193143 0.76800001 9.6076652e-39
0.0080457143 -0.05193143 0.76800001 9.8831647e-39
0.0094961906 -0.051863808 0.76700002 9.6994867e-39
0.010971429 -0.05193143 0.76800001 9.6101735e-39
0.012434285 -0.05193143 0.76800001 1.4760149e-38
0.013897142 -0.05193143 0.76800001 1.9904733e-38
0.0154 -0.052066669 0.77000004 1.8988533e-38
0.016866667 -0.052066669 0.77000004 1.8145873e-38
0.018333334 -0.052066669 0.77000004 1.527853e-38
0.019851428 -0.052201904 0.77200001 1.2541782e-38
0.021349525 -0.052269526 0.77300006 1.2809062e-38
0.024577145 -0.052878097 0.78200006 1.3081336e-38
0.026133334 -0.053013336 0.78400004 1.3093174e-38
-0.023264764 -0.051782858 0.78800005 9.6900812e-39
-0.021708572 -0.051651429 0.78600001 8.9575846e-39
-0.017063811 -0.051191431 0.77900004 9.0522872e-39
-0.015539999 -0.051059999 0.77700001 8.7771534e-39
-0.01398762 -0.050797146 0.77300006 8.7782437e-39
-0.012499048 -0.050731428 0.77200001 8.7782507e-39
-0.011 -0.0506 0.77000004 8.7786164e-39
-0.0095333336 -0.0506 0.77000004 8.8708022e-39
-0.0080457143 -0.050468571 0.76800001 8.9626293e-39
-0.0065742861 -0.050402857 0.76700002 9.0548263e-39
-0.0051133335 -0.050402857 0.76700002 9.0551879e-39
-0.003652381 -0.050402857 0.76700002 9.1473919e-39
-0.0021914286 -0.050402857 0.76700002 9.1477605e-39
-0.00073142856 -0.050468571 0.76800001 9.2403064e-39
0.00073142856 -0.050468571 0.76800001 9.2402994e-39
0.0021942856 -0.050468571 0.76800001 9.1488324e-39
0.0036571429 -0.050468571 0.76800001 9.2403204e-39
0.0051199999 -0.050468571 0.76800001 9.3321573e-39
0.0065828571 -0.050468571 0.76800001 9.3321587e-39
0.0080457143 -0.050468571 0.76800001 9.4239858e-39
0.0095085716 -0.050468571 0.76800001 9.6065736e-39
0.010971429 -0.050468571 0.76800001 9.7938417e-39
0.012434285 -0.050468571 0.76800001 1.4944174e-38
0.013933334 -0.0506 0.77000004 2.0095971e-38
0.0154 -0.0506 0.77000004 2.018462e-38
0.016866667 -0.0506 0.77000004 2.026674e-38
0.018380953 -0.050731428 0.77200001 1.870192e-38
0.019851428 -0.050731428 0.77200001 1.7228984e-38
0.021349525 -0.050797146 0.77300006 1.7135016e-38
0.024577145 -0.051388573 0.78200006 1.7134631e-38
0.026133334 -0.051520005 0.78400004 1.7136428e-38
-0.023205714 -0.050154287 0.78600001 1.0050966e-38
-0.021708572 -0.050154287 0.78600001 8.3158124e-39
-0.018571429 -0.049771432 0.78000003 9.3278203e-39
-0.017063811 -0.049707621 0.77900004 9.0523012e-39
-0.015539999 -0.04958 0.77700001 8.7775164e-39
-0.01398762 -0.049324766 0.77300006 8.778238e-39
-0.012499048 -0.049260955 0.77200001 8.7782465e-39
-0.011 -0.049133338 0.77000004 8.7789709e-39
-0.0095333336 -0.049133338 0.77000004 8.8707994e-39
-0.0080457143 -0.049005713 0.76800001 9.0544634e-39
-0.0065828571 -0.049005713 0.76800001 9.2384973e-39
-0.0051199999 -0.049005713 0.76800001 9.2388617e-39
-0.0036571429 -0.049005713 0.76800001 9.2388771e-39
-0.0021942856 -0.049005713 0.76800001 9.3310867e-39
-0.00073142856 -0.049005713 0.76800001 9.4228942e-39
0.00073142856 -0.049005713 0.76800001 9.331388e-39
0.0022000002 -0.049133338 0.77000004 9.2395735e-39
0.0036666668 -0.049133338 0.77000004 9.2399547e-39
0.0051333336 -0.049133338 0.77000004 9.2399477e-39
0.0066000004 -0.049133338 0.77000004 9.1481066e-39
0.0080666672 -0.049133338 0.77000004 9.0555536e-39
0.0095085716 -0.049005713 0.76800001 9.5140136e-39
0.011 -0.049133338 0.77000004 9.9775155e-39
0.012466667 -0.049133338 0.77000004 1.5128215e-38
0.013933334 -0.049133338 0.77000004 2.0280728e-38
0.0154 -0.049133338 0.77000004 2.1380999e-38
0.016910477 -0.049260955 0.77200001 2.2483387e-38
0.018380953 -0.049260955 0.77200001 2.2208243e-38
0.019877145 -0.049324766 0.77300006 2.1930242e-38
0.023028571 -0.049771432 0.78000003 2.119592e-38
0.024577145 -0.049899053 0.78200006 2.1198417e-38
-0.018571429 -0.048285715 0.78000003 8.9608441e-39
-0.017063811 -0.048223812 0.77900004 8.8682869e-39
-0.015539999 -0.048100002 0.77700001 8.7778807e-39
-0.01402381 -0.047976192 0.77500004 8.6863983e-39
-0.012515238 -0.047852382 0.77300006 8.6867655e-39
-0.011028571 -0.047790475 0.77200001 8.6867739e-39
-0.0095333336 -0.047666669 0.77000004 8.7793213e-39
-0.0080666672 -0.047666669 0.77000004 8.8711511e-39
-0.0065828571 -0.047542859 0.76800001 9.0555452e-39
-0.0051199999 -0.047542859 0.76800001 9.0559109e-39
-0.0036571429 -0.047542859 0.76800001 9.0562907e-39
-0.0021942856 -0.047542859 0.76800001 9.0559544e-39
-0.00073142856 -0.047542859 0.76800001 9.0559039e-39
0.00073142856 -0.047542859 0.76800001 9.147689e-39
0.0022000002 -0.047666669 0.77000004 9.1480799e-39
0.0036666668 -0.047666669 0.77000004 9.2403064e-39
0.0051333336 -0.047666669 0.77000004 9.2406511e-39
0.0066000004 -0.047666669 0.77000004 9.3317551e-39
0.0080666672 -0.047666669 0.77000004 9.4225229e-39
0.0095333336 -0.047666669 0.77000004 9.5147255e-39
0.011 -0.047666669 0.77000004 9.6101763e-39
0.012466667 -0.047666669 0.77000004 1.4945274e-38
0.013933334 -0.047666669 0.77000004 2.0281814e-38
0.015439999 -0.047790475 0.77200001 2.1566472e-38
0.016910477 -0.047790475 0.77200001 2.2951573e-38
0.018380953 -0.047790475 0.77200001 2.2584626e-38
0.019877145 -0.047852382 0.77300006 2.2218016e-38
0.021515239 -0.048223812 0.77900004 2.1944317e-38
0.023028571 -0.048285715 0.78000003 2.1762424e-38
0.024577145 -0.048409529 0.78200006 2.1853528e-38
-0.023294287 -0.047340002 0.78900003 1.5768189e-38
-0.018571429 -0.046800002 0.78000003 8.5931265e-39
-0.017063811 -0.046740003 0.77900004 8.6846187e-39
-0.015539999 -0.04662 0.77700001 8.8693477e-39
-0.01402381 -0.046500001 0.77500004 8.6863773e-39
-0.012515238 -0.046380006 0.77300006 8.5949272e-39
-0.011028571 -0.046320003 0.77200001 8.6867893e-39
-0.0095333336 -0.0462 0.77000004 8.7789737e-39
-0.0080666672 -0.0462 0.77000004 8.7796828e-39
-0.0066000004 -0.0462 0.77000004 8.871877e-39
-0.0051333336 -0.0462 0.77000004 8.8725945e-39
-0.0036571429 -0.046079997 0.76800001 8.8726099e-39
-0.0022000002 -0.0462 0.77000004 8.7807898e-39
-0.00073333335 -0.0462 0.77000004 8.7807562e-39
0.00073333335 -0.0462 0.77000004 8.9643935e-39
0.0022000002 -0.0462 0.77000004 9.1484443e-39
0.0036666668 -0.0462 0.77000004 9.2413784e-39
0.0051333336 -0.0462 0.77000004 9.3324936e-39
0.0066000004 -0.0462 0.77000004 9.5158045e-39
0.0080666672 -0.0462 0.77000004 9.7913096e-39
0.0095333336 -0.0462 0.77000004 9.5158017e-39
0.011 -0.0462 0.77000004 9.33503e-39
0.012466667 -0.0462 0.77000004 1.4762682e-38
0.013933334 -0.0462 0.77000004 2.0281818e-38
0.015439999 -0.046320003 0.77200001 2.1844137e-38
0.016910477 -0.046320003 0.77200001 2.3407896e-38
0.018404763 -0.046380006 0.77300006 2.2951634e-38
0.021515239 -0.046740003 0.77900004 2.2399194e-38
0.023028571 -0.046800002 0.78000003 2.2308073e-38
0.024514288 -0.046800002 0.78000003 2.2492818e-38
-0.023353333 -0.045953333 0.79100001 1.6133486e-38
-0.017063811 -0.04525619 0.77900004 8.6842628e-39
-0.015580001 -0.04525619 0.77900004 8.8693393e-39
-0.01402381 -0.04502381 0.77500004 8.7781918e-39
-0.012547619 -0.04502381 0.77500004 8.6867599e-39
-0.011042858 -0.044907622 0.77300006 8.6868047e-39
-0.0095580956 -0.044849522 0.77200001 8.7789863e-39
-0.0080876192 -0.044849522 0.77200001 8.687497e-39
-0.0066171428 -0.044849522 0.77200001 8.5963733e-39
-0.0051333336 -0.044733334 0.77000004 8.688562e-39
-0.0036666668 -0.044733334 0.77000004 8.8722414e-39
-0.0022000002 -0.044733334 0.77000004 8.8722498e-39
-0.00073333335 -0.044733334 0.77000004 8.8729504e-39
0.00073333335 -0.044733334 0.77000004 9.0566046e-39
0.0022000002 -0.044733334 0.77000004 9.2406455e-39
0.0036666668 -0.044733334 0.77000004 9.3324936e-39
0.0051333336 -0.044733334 0.77000004 9.4243375e-39
0.0066000004 -0.044733334 0.77000004 9.6998538e-39
0.0080666672 -0.044733334 0.77000004 9.9757078e-39
0.0095333336 -0.044733334 0.77000004 9.6994727e-39
0.011 -0.044733334 0.77000004 9.4272256e-39
0.012466667 -0.044733334 0.77000004 1.4855238e-38
0.013933334 -0.044733334 0.77000004 2.0281824e-38
0.015439999 -0.044849522 0.77200001 2.1844144e-38
0.016910477 -0.044849522 0.77200001 2.3403607e-38
0.02299905 -0.04525619 0.77900004 2.2029355e-38
-0.020211428 -0.044165716 0.78600001 1.2171799e-38
-0.017085714 -0.043828573 0.78000003 8.5920629e-39
-0.015580001 -0.043772385 0.77900004 8.9618964e-39
-0.01406 -0.04366 0.77700001 8.8704e-39
-0.012547619 -0.043547619 0.77500004 8.7785912e-39
-0.011042858 -0.043435238 0.77300006 8.7786178e-39
-0.0095704766 -0.043435238 0.77300006 8.8704449e-39
-0.0080876192 -0.043379046 0.77200001 8.5952887e-39
-0.0066171428 -0.043379046 0.77200001 8.3204899e-39
-0.0051466669 -0.043379046 0.77200001 8.596704e-39
-0.0036761905 -0.043379046 0.77200001 8.9640614e-39
-0.0022057144 -0.043379046 0.77200001 8.9640754e-39
-0.00073523808 -0.043379046 0.77200001 8.9644272e-39
0.00073523808 -0.043379046 0.77200001 9.1484513e-39
0.0022057144 -0.043379046 0.77200001 9.3321251e-39
0.0036761905 -0.043379046 0.77200001 9.4239634e-39
0.0051333336 -0.043266669 0.77000004 9.5158073e-39
0.0066000004 -0.043266669 0.77000004 9.7916823e-39
0.0080666672 -0.043266669 0.77000004 1.0158652e-38
0.0095580956 -0.043379046 0.77200001 9.7912956e-39
0.011028571 -0.043379046 0.77200001 9.5197758e-39
0.012499048 -0.043379046 0.77200001 1.4948157e-38
0.013969524 -0.043379046 0.77200001 2.037331e-38
0.015460001 -0.043435238 0.77300006 2.1844157e-38
0.016932381 -0.043435238 0.77300006 2.3401816e-38
0.02003143 -0.043772385 0.77900004 2.2400274e-38
0.021515239 -0.043772385 0.77900004 2.2120458e-38
0.02299905 -0.043772385 0.77900004 2.1844235e-38
-0.020211428 -0.042668574 0.78600001 1.1437838e-38
-0.017085714 -0.04234286 0.78000003 8.7768059e-39
-0.015580001 -0.042288575 0.77900004 8.9626181e-39
-0.01406 -0.042180002 0.77700001 8.6867431e-39
-0.012547619 -0.042071432 0.77500004 8.5030805e-39
-0.011042858 -0.041962862 0.77300006 8.5945657e-39
-0.0095704766 -0.041962862 0.77300006 8.6863969e-39
-0.0080876192 -0.041908573 0.77200001 8.5952761e-39
-0.0066171428 -0.041908573 0.77200001 8.5041441e-39
-0.0051466669 -0.041908573 0.77200001 8.7796365e-39
-0.0036761905 -0.041908573 0.77200001 9.1469995e-39
-0.0022057144 -0.041908573 0.77200001 9.0551851e-39
-0.00073523808 -0.041908573 0.77200001 9.0555466e-39
0.00073523808 -0.041908573 0.77200001 9.1481038e-39
0.0022057144 -0.041908573 0.77200001 9.2406497e-39
0.0036761905 -0.041908573 0.77200001 9.4239564e-39
0.0051466669 -0.041908573 0.77200001 9.6076372e-39
0.0066171428 -0.041908573 0.77200001 9.791318e-39
0.0080876192 -0.041908573 0.77200001 9.9749722e-39
