# .PCD v0.7 - Point Cloud Data file format
VERSION 0.7
FIELDS x y z rgb
SIZE 4 4 4 4
TYPE F F F F
COUNT 1 1 1 1
WIDTH 986
HEIGHT 1
VIEWPOINT 0 0 0 1 0 0 0
POINTS 986
DATA ascii
0.19924952 -0.028674286 0.77200001 2.1765918e-38
0.20072 -0.028674286 0.77200001 2.1582258e-38
0.20219047 -0.028674286 0.77200001 2.1400725e-38
0.20366096 -0.028674286 0.77200001 2.15851e-38
0.20513143 -0.028674286 0.77200001 2.1865629e-38
0.2066019 -0.028674286 0.77200001 2.0404154e-38
0.20834193 -0.028711431 0.77300006 1.9030883e-38
0.20981431 -0.028711431 0.77300006 1.4143112e-38
0.21128668 -0.028711431 0.77300006 9.3698032e-39
0.21275906 -0.028711431 0.77300006 1.0305003e-38
0.21423145 -0.028711431 0.77300006 1.1226697e-38
0.21570382 -0.028711431 0.77300006 1.6115972e-38
0.2171762 -0.028711431 0.77300006 2.1018437e-38
0.16086572 -0.02794381 0.79300004 2.0114275e-38
0.1623762 -0.02794381 0.79300004 2.0205373e-38
0.16388667 -0.02794381 0.79300004 2.0204995e-38
0.16498001 -0.027873334 0.79100001 2.0113173e-38
0.16606572 -0.027802859 0.78900003 2.0205024e-38
0.16735621 -0.027767621 0.78800005 2.0296868e-38
0.16842857 -0.027697144 0.78600001 2.0205401e-38
0.16949333 -0.027626667 0.78400004 2.0112485e-38
0.17098668 -0.027626667 0.78400004 2.0296152e-38
0.17204002 -0.027556192 0.78200006 2.0479829e-38
0.17308572 -0.027485715 0.78000003 2.0387999e-38
0.17434764 -0.027450478 0.77900004 2.0388003e-38
0.17719238 -0.027203809 0.77200001 2.0571678e-38
0.17866287 -0.027203809 0.77200001 2.0571682e-38
0.18013333 -0.027203809 0.77200001 2.0755357e-38
0.18160382 -0.027203809 0.77200001 2.0847538e-38
0.18307428 -0.027203809 0.77200001 2.0573453e-38
0.18406667 -0.027133334 0.77000004 2.0296881e-38
0.18553334 -0.027133334 0.77000004 2.0480203e-38
0.18700001 -0.027133334 0.77000004 2.0755352e-38
0.18846668 -0.027133334 0.77000004 2.0847189e-38
0.18993334 -0.027133334 0.77000004 2.0939013e-38
0.19140001 -0.027133334 0.77000004 2.1030837e-38
0.19286667 -0.027133334 0.77000004 2.1122681e-38
0.19483809 -0.027203809 0.77200001 2.1122691e-38
0.19630858 -0.027203809 0.77200001 2.1214888e-38
0.19777904 -0.027203809 0.77200001 2.1306726e-38
0.19924952 -0.027203809 0.77200001 2.1490759e-38
0.20072 -0.027203809 0.77200001 2.1490403e-38
0.20245239 -0.027239049 0.77300006 2.1399639e-38
0.20366096 -0.027203809 0.77200001 2.1584024e-38
0.20539716 -0.027239049 0.77300006 2.1772717e-38
0.20686953 -0.027239049 0.77300006 2.0861895e-38
0.20834193 -0.027239049 0.77300006 1.9954988e-38
0.20981431 -0.027239049 0.77300006 1.4694146e-38
0.21128668 -0.027239049 0.77300006 9.5527511e-39
0.21275906 -0.027239049 0.77300006 9.8414901e-39
0.21423145 -0.027239049 0.77300006 1.0122868e-38
0.21570382 -0.027239049 0.77300006 1.5658601e-38
0.2171762 -0.027239049 0.77300006 2.1115663e-38
0.22182953 -0.027450478 0.77900004 2.3415522e-38
0.16015905 -0.026566669 0.79700005 2.0206467e-38
0.1623762 -0.026433334 0.79300004 2.0296855e-38
0.16388667 -0.026433334 0.79300004 2.0204653e-38
0.16606572 -0.026300002 0.78900003 2.020503e-38
0.16735621 -0.026266668 0.78800005 2.0296868e-38
0.16842857 -0.0262 0.78600001 2.029723e-38
0.1699257 -0.0262 0.78600001 2.0296146e-38
0.17098668 -0.026133334 0.78400004 2.047981e-38
0.17248 -0.026133334 0.78400004 2.0755327e-38
0.17352954 -0.026066668 0.78200006 2.0571665e-38
0.17457142 -0.026000001 0.78000003 2.0388001e-38
0.17583144 -0.025966669 0.77900004 2.0388008e-38
0.17686 -0.025899999 0.77700001 2.047984e-38
0.1788943 -0.025766669 0.77300006 2.0571672e-38
0.18036668 -0.025766669 0.77300006 2.0571672e-38
0.18160382 -0.025733333 0.77200001 2.066421e-38
0.18307428 -0.025733333 0.77200001 2.0573437e-38
0.18454476 -0.025733333 0.77200001 2.0572023e-38
0.18601525 -0.025733333 0.77200001 2.0663879e-38
0.18700001 -0.025666667 0.77000004 2.0755355e-38
0.18846668 -0.025666667 0.77000004 2.0847187e-38
0.18993334 -0.025666667 0.77000004 2.0939014e-38
0.19140001 -0.025666667 0.77000004 2.1030841e-38
0.19336763 -0.025733333 0.77200001 2.1122681e-38
0.19483809 -0.025733333 0.77200001 2.1123403e-38
0.19630858 -0.025733333 0.77200001 2.1214524e-38
0.19777904 -0.025733333 0.77200001 2.1214527e-38
0.19924952 -0.025733333 0.77200001 2.1306359e-38
0.20072 -0.025733333 0.77200001 2.1398552e-38
0.20245239 -0.025766669 0.77300006 2.1490749e-38
0.20392478 -0.025766669 0.77300006 2.1582947e-38
0.20539716 -0.025766669 0.77300006 2.1770566e-38
0.20686953 -0.025766669 0.77300006 2.1320001e-38
0.20834193 -0.025766669 0.77300006 2.0964818e-38
0.20981431 -0.025766669 0.77300006 1.5336986e-38
0.21128668 -0.025766669 0.77300006 9.7400249e-39
0.21330953 -0.025833335 0.77500004 9.3784058e-39
0.21478572 -0.025833335 0.77500004 9.1101916e-39
0.21626191 -0.025833335 0.77500004 1.5201587e-38
0.21773811 -0.025833335 0.77500004 2.130221e-38
0.22182953 -0.025966669 0.77900004 2.3414801e-38
0.22331335 -0.025966669 0.77900004 2.3231127e-38
0.15884002 -0.025080001 0.79800004 2.0115694e-38
0.16036001 -0.025080001 0.79800004 2.0114621e-38
0.16167715 -0.025048574 0.79700005 2.0205025e-38
0.16278571 -0.024985714 0.79500002 2.0205027e-38
0.16606572 -0.024797143 0.78900003 2.0204678e-38
0.16756858 -0.024797143 0.78900003 2.0296509e-38
0.16842857 -0.024702856 0.78600001 2.0296505e-38
0.1699257 -0.024702856 0.78600001 2.0296137e-38
0.17098668 -0.024640001 0.78400004 2.0387962e-38
0.17248 -0.024640001 0.78400004 2.0571647e-38
0.17352954 -0.024577145 0.78200006 2.038799e-38
0.17501907 -0.024577145 0.78200006 2.0204329e-38
0.17583144 -0.024482857 0.77900004 2.0296174e-38
0.17686 -0.024420001 0.77700001 2.0479838e-38
0.17834 -0.024420001 0.77700001 2.0571667e-38
0.17935716 -0.024357144 0.77500004 2.0755334e-38
0.18083334 -0.024357144 0.77500004 2.0663853e-38
0.18183906 -0.024294289 0.77300006 2.0573078e-38
0.18331145 -0.024294289 0.77300006 2.0572704e-38
0.18454476 -0.024262857 0.77200001 2.0572019e-38
0.18601525 -0.024262857 0.77200001 2.0663528e-38
0.18748571 -0.024262857 0.77200001 2.0755357e-38
0.1889562 -0.024262857 0.77200001 2.0847187e-38
0.19042666 -0.024262857 0.77200001 2.0939017e-38
0.19189714 -0.024262857 0.77200001 2.0939012e-38
0.19336763 -0.024262857 0.77200001 2.1030846e-38
0.19483809 -0.024262857 0.77200001 2.112268e-38
0.19630858 -0.024262857 0.77200001 2.1214518e-38
0.19777904 -0.024262857 0.77200001 2.1306358e-38
0.19924952 -0.024262857 0.77200001 2.1398185e-38
0.20072 -0.024262857 0.77200001 2.1490013e-38
0.20245239 -0.024294289 0.77300006 2.1582219e-38
0.20392478 -0.024294289 0.77300006 2.1675142e-38
0.20539716 -0.024294289 0.77300006 2.1860611e-38
0.20686953 -0.024294289 0.77300006 2.177739e-38
0.20834193 -0.024294289 0.77300006 2.1699142e-38
0.20981431 -0.024294289 0.77300006 1.7359152e-38
0.21128668 -0.024294289 0.77300006 1.3050064e-38
0.21330953 -0.024357144 0.77500004 1.0849248e-38
0.21478572 -0.024357144 0.77500004 8.6485297e-39
0.21626191 -0.024357144 0.77500004 1.5206622e-38
0.21773811 -0.024357144 0.77500004 2.1764622e-38
0.15884002 -0.023560001 0.79800004 2.0024945e-38
0.16036001 -0.023560001 0.79800004 2.011391e-38
0.16167715 -0.023530476 0.79700005 2.0113193e-38
0.16539715 -0.023412382 0.79300004 2.0021367e-38
0.16756858 -0.023294287 0.78900003 2.0296511e-38
0.16885714 -0.023264764 0.78800005 2.0296865e-38
0.1699257 -0.023205714 0.78600001 2.0296144e-38
0.17098668 -0.023146667 0.78400004 2.0296139e-38
0.17248 -0.023146667 0.78400004 2.0387983e-38
0.17397334 -0.023146667 0.78400004 2.0204321e-38
0.17501907 -0.023087621 0.78200006 2.0020654e-38
0.17605714 -0.023028571 0.78000003 2.020433e-38
0.17731525 -0.02299905 0.77900004 2.0479834e-38
0.17834 -0.022940001 0.77700001 2.0663504e-38
0.17935716 -0.022880953 0.77500004 2.0939005e-38
0.18083334 -0.022880953 0.77500004 2.0664569e-38
0.18183906 -0.022821905 0.77300006 2.0480533e-38
0.18331145 -0.022821905 0.77300006 2.0572363e-38
0.18478382 -0.022821905 0.77300006 2.0663857e-38
0.18601525 -0.022792382 0.77200001 2.0663515e-38
0.18748571 -0.022792382 0.77200001 2.0755349e-38
0.1889562 -0.022792382 0.77200001 2.0847182e-38
0.19042666 -0.022792382 0.77200001 2.0939014e-38
0.19189714 -0.022792382 0.77200001 2.0939012e-38
0.19336763 -0.022792382 0.77200001 2.1030847e-38
0.19483809 -0.022792382 0.77200001 2.1122683e-38
0.19630858 -0.022792382 0.77200001 2.1306356e-38
0.19777904 -0.022792382 0.77200001 2.1398196e-38
0.19924952 -0.022792382 0.77200001 2.1490029e-38
0.20098002 -0.022821905 0.77300006 2.1581863e-38
0.20245239 -0.022821905 0.77300006 2.1674779e-38
0.20392478 -0.022821905 0.77300006 2.1767696e-38
0.20592858 -0.022880953 0.77500004 2.1952443e-38
0.20740476 -0.022880953 0.77500004 2.214329e-38
0.20888096 -0.022880953 0.77500004 2.2422722e-38
0.21035716 -0.022880953 0.77500004 1.9381369e-38
0.21183333 -0.022880953 0.77500004 1.6440799e-38
0.21330953 -0.022880953 0.77500004 1.2306367e-38
0.21534 -0.022940001 0.77700001 8.287963e-39
0.21681999 -0.022940001 0.77700001 1.5303808e-38
0.2183 -0.022940001 0.77700001 2.2310586e-38
0.22034572 -0.02299905 0.77900004 2.2865563e-38
0.22182953 -0.02299905 0.77900004 2.3415867e-38
0.16036001 -0.02204 0.79800004 1.9929888e-38
0.16188002 -0.02204 0.79800004 2.002136e-38
0.16319525 -0.022012381 0.79700005 2.0205039e-38
0.16471334 -0.022012381 0.79700005 2.0205048e-38
0.16690762 -0.021901906 0.79300004 2.0204681e-38
0.16799334 -0.021846667 0.79100001 2.0296871e-38
0.16907144 -0.021791428 0.78900003 2.0205031e-38
0.17035811 -0.021763811 0.78800005 2.0204315e-38
0.17142285 -0.021708572 0.78600001 2.0296153e-38
0.17292 -0.021708572 0.78600001 2.038799e-38
0.17397334 -0.021653336 0.78400004 2.0204322e-38
0.17501907 -0.021598097 0.78200006 2.0112487e-38
0.17605714 -0.021542858 0.78000003 2.0296158e-38
0.17731525 -0.021515239 0.77900004 2.0479831e-38
0.17879906 -0.021515239 0.77900004 2.057167e-38
0.17982 -0.02146 0.77700001 2.0755334e-38
0.1813 -0.02146 0.77700001 2.0571657e-38
0.18278 -0.02146 0.77700001 2.0480184e-38
0.18378572 -0.021404762 0.77500004 2.0572024e-38
0.18601525 -0.021321906 0.77200001 2.0756057e-38
0.18748571 -0.021321906 0.77200001 2.0755699e-38
0.1889562 -0.021321906 0.77200001 2.0847895e-38
0.19042666 -0.021321906 0.77200001 2.0848612e-38
0.19189714 -0.021321906 0.77200001 2.0939372e-38
0.19336763 -0.021321906 0.77200001 2.1030849e-38
0.19483809 -0.021321906 0.77200001 2.1122685e-38
0.19630858 -0.021321906 0.77200001 2.1214524e-38
0.19777904 -0.021321906 0.77200001 2.1306363e-38
0.19950764 -0.021349525 0.77300006 2.1490397e-38
0.20098002 -0.021349525 0.77300006 2.149076e-38
0.20245239 -0.021349525 0.77300006 2.1583669e-38
0.20445238 -0.021404762 0.77500004 2.1676221e-38
0.20592858 -0.021404762 0.77500004 2.1860605e-38
0.20794 -0.02146 0.77700001 2.195746e-38
0.20942001 -0.02146 0.77700001 2.2151538e-38
0.21035716 -0.021404762 0.77500004 2.0590339e-38
0.21183333 -0.021404762 0.77500004 1.8937213e-38
0.21386001 -0.02146 0.77700001 1.6166636e-38
0.21534 -0.02146 0.77700001 1.3345691e-38
0.21681999 -0.02146 0.77700001 1.7971671e-38
0.21886191 -0.021515239 0.77900004 2.2489209e-38
0.22034572 -0.021515239 0.77900004 2.2216235e-38
0.16076191 -0.020571429 0.80000001 1.9746586e-38
0.16188002 -0.020520002 0.79800004 1.9930606e-38
0.16340001 -0.020520002 0.79800004 2.0206121e-38
0.16471334 -0.020494286 0.79700005 2.0298325e-38
0.16690762 -0.020391429 0.79300004 2.0387982e-38
0.16799334 -0.020339999 0.79100001 2.0296508e-38
0.16907144 -0.020288572 0.78900003 2.0205393e-38
0.17035811 -0.020262858 0.78800005 2.0204318e-38
0.17142285 -0.020211428 0.78600001 2.0296156e-38
0.17292 -0.020211428 0.78600001 2.0387989e-38
0.17397334 -0.020160001 0.78400004 2.0296509e-38
0.17501907 -0.020108573 0.78200006 2.0296148e-38
0.17583144 -0.02003143 0.77900004 2.0387982e-38
0.17731525 -0.02003143 0.77900004 2.0479823e-38
0.17879906 -0.02003143 0.77900004 2.047983e-38
0.17982 -0.01998 0.77700001 2.0571661e-38
0.1813 -0.01998 0.77700001 2.0479823e-38
0.18278 -0.01998 0.77700001 2.0479826e-38
0.18426001 -0.01998 0.77700001 2.0571665e-38
0.18526191 -0.019928573 0.77500004 2.0755687e-38
0.1862562 -0.019877145 0.77300006 2.0756755e-38
0.18772858 -0.019877145 0.77300006 2.084896e-38
0.18920097 -0.019877145 0.77300006 2.084969e-38
0.19042666 -0.019851428 0.77200001 2.084898e-38
0.19189714 -0.019851428 0.77200001 2.0939746e-38
0.19336763 -0.019851428 0.77200001 2.1122697e-38
0.19483809 -0.019851428 0.77200001 2.1122694e-38
0.19656287 -0.019877145 0.77300006 2.1214531e-38
0.19803524 -0.019877145 0.77300006 2.1306368e-38
0.19950764 -0.019877145 0.77300006 2.1490397e-38
0.20098002 -0.019877145 0.77300006 2.1491474e-38
0.20445238 -0.019928573 0.77500004 2.1679077e-38
0.20646 -0.01998 0.77700001 2.1771276e-38
0.20794 -0.01998 0.77700001 2.1863836e-38
0.20942001 -0.01998 0.77700001 2.1962849e-38
0.21090001 -0.01998 0.77700001 2.1693803e-38
0.21238001 -0.01998 0.77700001 2.1511169e-38
0.21441048 -0.02003143 0.77900004 1.9935575e-38
0.2158943 -0.02003143 0.77900004 1.8496775e-38
0.21737809 -0.02003143 0.77900004 2.0639561e-38
0.15923809 -0.019047618 0.80000001 1.9932436e-38
0.16076191 -0.019047618 0.80000001 1.9840586e-38
0.16188002 -0.019000001 0.79800004 2.0022808e-38
0.16340001 -0.019000001 0.79800004 2.0114293e-38
0.16492002 -0.019000001 0.79800004 2.0205421e-38
0.16623144 -0.018976191 0.79700005 2.0296516e-38
0.16690762 -0.018880952 0.79300004 2.0296135e-38
0.16841809 -0.018880952 0.79300004 2.0296504e-38
0.16950001 -0.018833334 0.79100001 2.0112484e-38
0.17142285 -0.018714285 0.78600001 2.029616e-38
0.17292 -0.018714285 0.78600001 2.0663494e-38
0.17397334 -0.018666666 0.78400004 2.0479815e-38
0.17501907 -0.018619049 0.78200006 2.0387975e-38
0.17605714 -0.018571429 0.78000003 2.0479806e-38
0.17731525 -0.018547619 0.77900004 2.0571651e-38
0.17879906 -0.018547619 0.77900004 2.0571661e-38
0.18028286 -0.018547619 0.77900004 2.0572737e-38
0.1813 -0.0185 0.77700001 2.0480543e-38
0.18278 -0.0185 0.77700001 2.0388709e-38
0.18426001 -0.0185 0.77700001 2.0572024e-38
0.18574001 -0.0185 0.77700001 2.0755318e-38
0.1867381 -0.01845238 0.77500004 2.0756376e-38
0.1882143 -0.01845238 0.77500004 2.084931e-38
0.18969047 -0.01845238 0.77500004 2.0757499e-38
0.19067335 -0.018404763 0.77300006 2.0665676e-38
0.19214574 -0.018404763 0.77300006 2.0848285e-38
0.1936181 -0.018404763 0.77300006 2.1031232e-38
0.19509049 -0.018404763 0.77300006 2.1122704e-38
0.19656287 -0.018404763 0.77300006 2.1214538e-38
0.19803524 -0.018404763 0.77300006 2.1306372e-38
0.19950764 -0.018404763 0.77300006 2.1398562e-38
0.2035 -0.0185 0.77700001 2.1589032e-38
0.20498 -0.0185 0.77700001 2.1680856e-38
0.20646 -0.0185 0.77700001 2.1864544e-38
0.20794 -0.0185 0.77700001 2.2047514e-38
0.20942001 -0.0185 0.77700001 2.2233698e-38
0.21090001 -0.0185 0.77700001 2.1877837e-38
0.21238001 -0.0185 0.77700001 2.1605566e-38
0.21441048 -0.018547619 0.77900004 2.1227828e-38
0.2158943 -0.018547619 0.77900004 2.0800961e-38
0.21765715 -0.018571429 0.78000003 2.1931712e-38
0.22382286 -0.018714285 0.78600001 2.1383244e-38
0.22532 -0.018714285 0.78600001 2.1295761e-38
0.16076191 -0.017523808 0.80000001 2.0024607e-38
0.16228572 -0.017523808 0.80000001 2.0023524e-38
0.16340001 -0.017479999 0.79800004 2.0113928e-38
0.16471334 -0.017458096 0.79700005 2.0113217e-38
0.16623144 -0.017458096 0.79700005 2.0204321e-38
0.16732858 -0.017414285 0.79500002 2.0204307e-38
0.16841809 -0.017370475 0.79300004 2.0296149e-38
0.16950001 -0.017326668 0.79100001 1.9928814e-38
0.17100666 -0.017326668 0.79100001 1.9653308e-38
0.17292 -0.017217144 0.78600001 2.0939003e-38
0.17397334 -0.017173335 0.78400004 2.0755329e-38
0.17501907 -0.017129526 0.78200006 2.057166e-38
0.17605714 -0.017085714 0.78000003 2.0571661e-38
0.17731525 -0.017063811 0.77900004 2.0663498e-38
0.17879906 -0.017063811 0.77900004 2.0571663e-38
0.18028286 -0.017063811 0.77900004 2.0572021e-38
0.18176667 -0.017063811 0.77900004 2.0389069e-38
0.18325049 -0.017063811 0.77900004 2.0296876e-38
0.18426001 -0.01702 0.77700001 2.0481625e-38
0.18574001 -0.01702 0.77700001 2.0756045e-38
0.18722001 -0.01702 0.77700001 2.0756036e-38
0.18870001 -0.01702 0.77700001 2.0847888e-38
0.18969047 -0.016976191 0.77500004 2.0664235e-38
0.19067335 -0.016932381 0.77300006 2.0572764e-38
0.19214574 -0.016932381 0.77300006 2.0756801e-38
0.1936181 -0.016932381 0.77300006 2.093975e-38
0.19509049 -0.016932381 0.77300006 2.1031581e-38
0.19656287 -0.016932381 0.77300006 2.1214894e-38
0.19854762 -0.016976191 0.77500004 2.1306369e-38
0.20002382 -0.016976191 0.77500004 2.1398921e-38
0.20150001 -0.016976191 0.77500004 2.1491829e-38
0.2035 -0.01702 0.77700001 2.1680876e-38
0.20498 -0.01702 0.77700001 2.1774501e-38
0.20794 -0.01702 0.77700001 2.2231194e-38
0.20942001 -0.01702 0.77700001 2.2509567e-38
0.21090001 -0.01702 0.77700001 2.2153702e-38
0.21292667 -0.017063811 0.77900004 2.1785669e-38
0.21441048 -0.017063811 0.77900004 2.2428184e-38
0.21617144 -0.017085714 0.78000003 2.3194822e-38
0.22232571 -0.017217144 0.78600001 2.2864815e-38
0.22382286 -0.017217144 0.78600001 2.2304122e-38
0.22681715 -0.017217144 0.78600001 1.9549792e-38
0.16188002 -0.01596 0.79800004 2.002424e-38
0.16340001 -0.01596 0.79800004 2.0113566e-38
0.16471334 -0.015940001 0.79700005 2.0112849e-38
0.1658143 -0.015899999 0.79500002 2.0204321e-38
0.16732858 -0.015899999 0.79500002 2.0296151e-38
0.16841809 -0.015860001 0.79300004 2.0479824e-38
0.16992857 -0.015860001 0.79300004 2.0204322e-38
0.17100666 -0.01582 0.79100001 2.0021008e-38
0.17546667 -0.01568 0.78400004 2.0479838e-38
0.17650859 -0.01564 0.78200006 2.0571682e-38
0.17754287 -0.015600001 0.78000003 2.0571674e-38
0.17902859 -0.015600001 0.78000003 2.0571665e-38
0.18028286 -0.015580001 0.77900004 2.0571665e-38
0.18176667 -0.015580001 0.77900004 2.048019e-38
0.18325049 -0.015580001 0.77900004 2.0480909e-38
0.18473428 -0.015580001 0.77900004 2.0572746e-38
0.1862181 -0.015580001 0.77900004 2.0756414e-38
0.18722001 -0.015539999 0.77700001 2.0847889e-38
0.18870001 -0.015539999 0.77700001 2.103193e-38
0.18969047 -0.015500002 0.77500004 2.0847913e-38
0.19116667 -0.015500002 0.77500004 2.0664241e-38
0.19214574 -0.015460001 0.77300006 2.0756076e-38
0.1936181 -0.015460001 0.77300006 2.0940103e-38
0.19509049 -0.015460001 0.77300006 2.1031579e-38
0.19656287 -0.015460001 0.77300006 2.1123414e-38
0.19854762 -0.015500002 0.77500004 2.1215608e-38
0.20002382 -0.015500002 0.77500004 2.1399638e-38
0.20150001 -0.015500002 0.77500004 2.1491832e-38
0.2035 -0.015539999 0.77700001 2.1680886e-38
0.20498 -0.015539999 0.77700001 2.1772364e-38
0.20699145 -0.015580001 0.77900004 2.1956045e-38
0.20847525 -0.015580001 0.77900004 2.2141162e-38
0.20995906 -0.015580001 0.77900004 2.2326261e-38
0.21144287 -0.015580001 0.77900004 2.2059357e-38
0.21292667 -0.015580001 0.77900004 2.178533e-38
0.21468572 -0.015600001 0.78000003 2.2523646e-38
0.22232571 -0.01572 0.78600001 2.3048896e-38
0.22382286 -0.01572 0.78600001 2.2673984e-38
0.22589335 -0.015760001 0.78800005 2.1090505e-38
0.16188002 -0.01444 0.79800004 2.0117156e-38
0.16340001 -0.01444 0.79800004 2.0205044e-38
0.16471334 -0.014421905 0.79700005 2.0204323e-38
0.1658143 -0.014385714 0.79500002 2.0204316e-38
0.16732858 -0.014385714 0.79500002 2.0479816e-38
0.16841809 -0.014349524 0.79300004 2.0755322e-38
0.16992857 -0.014349524 0.79300004 2.0571653e-38
0.17100666 -0.014313334 0.79100001 2.0387986e-38
0.17397334 -0.014186667 0.78400004 2.0387997e-38
0.17546667 -0.014186667 0.78400004 2.0479838e-38
0.17696001 -0.014186667 0.78400004 2.0479844e-38
0.1779981 -0.014150478 0.78200006 2.0571672e-38
0.17902859 -0.014114286 0.78000003 2.0571667e-38
0.18051429 -0.014114286 0.78000003 2.0571665e-38
0.18176667 -0.014096191 0.77900004 2.0571664e-38
0.18325049 -0.014096191 0.77900004 2.0663507e-38
0.18473428 -0.014096191 0.77900004 2.0663874e-38
0.1862181 -0.014096191 0.77900004 2.0756057e-38
0.18722001 -0.01406 0.77700001 2.1031553e-38
0.18870001 -0.01406 0.77700001 2.1307079e-38
0.19017999 -0.01406 0.77700001 2.1031594e-38
0.19116667 -0.01402381 0.77500004 2.0755722e-38
0.19214574 -0.01398762 0.77300006 2.0847192e-38
0.1936181 -0.01398762 0.77300006 2.0939026e-38
0.19509049 -0.01398762 0.77300006 2.1030861e-38
0.19707143 -0.01402381 0.77500004 2.1123055e-38
0.19854762 -0.01402381 0.77500004 2.121561e-38
0.20002382 -0.01402381 0.77500004 2.1399648e-38
0.20202 -0.01406 0.77700001 2.1491849e-38
0.2035 -0.01406 0.77700001 2.1676593e-38
0.20498 -0.01406 0.77700001 2.1769861e-38
0.20699145 -0.014096191 0.77900004 2.1958561e-38
0.20847525 -0.014096191 0.77900004 2.2052197e-38
0.20995906 -0.014096191 0.77900004 2.2146541e-38
0.21144287 -0.014096191 0.77900004 2.1965377e-38
0.21320002 -0.014114286 0.78000003 2.1880754e-38
0.21877334 -0.014186667 0.78400004 2.3407256e-38
0.22289144 -0.014259049 0.78800005 2.3232909e-38
0.2243924 -0.014259049 0.78800005 2.3132781e-38
0.22589335 -0.014259049 0.78800005 2.1271635e-38
0.16471334 -0.01290381 0.79700005 2.0204681e-38
0.1658143 -0.012871428 0.79500002 2.0112477e-38
0.16732858 -0.012871428 0.79500002 2.0296139e-38
0.16884285 -0.012871428 0.79500002 2.0572362e-38
0.16992857 -0.012839048 0.79300004 2.0388689e-38
0.17143907 -0.012839048 0.79300004 2.0296864e-38
0.17251334 -0.012806667 0.79100001 2.0296515e-38
0.17696001 -0.012693334 0.78400004 2.0388006e-38
0.1779981 -0.012660953 0.78200006 2.0479837e-38
0.17902859 -0.012628571 0.78000003 2.0479834e-38
0.18051429 -0.012628571 0.78000003 2.047983e-38
0.18176667 -0.012612382 0.77900004 2.0571663e-38
0.18325049 -0.012612382 0.77900004 2.0571675e-38
0.18473428 -0.012612382 0.77900004 2.0480212e-38
0.1862181 -0.012612382 0.77900004 2.0388716e-38
0.18722001 -0.012580001 0.77700001 2.0663846e-38
0.18870001 -0.012580001 0.77700001 2.1031217e-38
0.19017999 -0.012580001 0.77700001 2.075574e-38
0.19116667 -0.012547619 0.77500004 2.0572055e-38
0.19264287 -0.012547619 0.77500004 2.0755712e-38
0.19411905 -0.012547619 0.77500004 2.0847547e-38
0.19559525 -0.012547619 0.77500004 2.0939026e-38
0.19707143 -0.012547619 0.77500004 2.1030863e-38
0.19854762 -0.012547619 0.77500004 2.1215971e-38
0.20054001 -0.012580001 0.77700001 2.1308181e-38
0.20202 -0.012580001 0.77700001 2.1492585e-38
0.2035 -0.012580001 0.77700001 2.1677325e-38
0.20498 -0.012580001 0.77700001 2.1773099e-38
0.20699145 -0.012612382 0.77900004 2.1961437e-38
0.20847525 -0.012612382 0.77900004 2.2054711e-38
0.20995906 -0.012612382 0.77900004 2.2147982e-38
0.21144287 -0.012612382 0.77900004 2.2060092e-38
0.2152362 -0.012660953 0.78200006 2.2718788e-38
0.21728002 -0.012693334 0.78400004 2.3390006e-38
0.21877334 -0.012693334 0.78400004 2.3133543e-38
0.22289144 -0.012758096 0.78800005 2.2034728e-38
0.2243924 -0.012758096 0.78800005 2.129569e-38
0.22589335 -0.012758096 0.78800005 2.1015829e-38
0.16492002 -0.0114 0.79800004 2.0296875e-38
0.16623144 -0.011385715 0.79700005 2.0112838e-38
0.16732858 -0.011357143 0.79500002 2.0204668e-38
0.16884285 -0.011357143 0.79500002 2.0388331e-38
0.16992857 -0.011328571 0.79300004 2.0296488e-38
0.17143907 -0.011328571 0.79300004 2.0296861e-38
0.17251334 -0.011299999 0.79100001 2.0296874e-38
0.17358001 -0.011271429 0.78900003 2.0296159e-38
0.17696001 -0.011200001 0.78400004 2.0296166e-38
0.17845334 -0.011200001 0.78400004 2.0388e-38
0.17948763 -0.011171429 0.78200006 2.0387997e-38
0.18051429 -0.011142857 0.78000003 2.0479831e-38
0.18200001 -0.011142857 0.78000003 2.0480189e-38
0.18348572 -0.011142857 0.78000003 2.0571674e-38
0.18473428 -0.011128572 0.77900004 2.0296534e-38
0.18645716 -0.011142857 0.78000003 2.0112854e-38
0.18770191 -0.011128572 0.77900004 2.0387993e-38
0.18918572 -0.011128572 0.77900004 2.0755712e-38
0.19017999 -0.0111 0.77700001 2.0572058e-38
0.19165999 -0.0111 0.77700001 2.0480568e-38
0.19314 -0.0111 0.77700001 2.0664586e-38
0.19411905 -0.01107143 0.77500004 2.0848258e-38
0.19559525 -0.01107143 0.77500004 2.0941171e-38
0.19707143 -0.01107143 0.77500004 2.1033369e-38
0.19905999 -0.0111 0.77700001 2.1125569e-38
0.20054001 -0.0111 0.77700001 2.1308891e-38
0.20202 -0.0111 0.77700001 2.1495085e-38
0.20402381 -0.011128572 0.77900004 2.1679113e-38
0.20498 -0.0111 0.77700001 2.1776687e-38
0.20699145 -0.011128572 0.77900004 2.1961794e-38
0.20847525 -0.011128572 0.77900004 2.2055425e-38
0.20995906 -0.011128572 0.77900004 2.2150486e-38
0.21144287 -0.011128572 0.77900004 2.2155148e-38
0.21728002 -0.011200001 0.78400004 2.339179e-38
0.21877334 -0.011200001 0.78400004 2.2860181e-38
0.22289144 -0.011257144 0.78800005 2.0916536e-38
0.2243924 -0.011257144 0.78800005 1.9447874e-38
0.22618002 -0.011271429 0.78900003 2.0734638e-38
0.16492002 -0.0098800007 0.79800004 2.02054e-38
0.16623144 -0.0098676197 0.79700005 2.0113201e-38
0.16732858 -0.0098428568 0.79500002 2.0205032e-38
0.16884285 -0.0098428568 0.79500002 2.0205018e-38
0.16992857 -0.0098180957 0.79300004 2.0205006e-38
0.17143907 -0.0098180957 0.79300004 2.0205023e-38
0.17251334 -0.0097933328 0.79100001 2.0205039e-38
0.17402001 -0.0097933328 0.79100001 2.0204322e-38
0.17508286 -0.0097685717 0.78900003 2.0204323e-38
0.1763619 -0.0097561907 0.78800005 2.0204325e-38
0.17741142 -0.0097314287 0.78600001 2.0204328e-38
0.17845334 -0.0097066667 0.78400004 2.0204685e-38
0.17994668 -0.0097066667 0.78400004 2.0296162e-38
0.18097715 -0.0096819047 0.78200006 2.0479833e-38
0.18200001 -0.0096571427 0.78000003 2.0479834e-38
0.18348572 -0.0096571427 0.78000003 2.0479837e-38
0.18497142 -0.0096571427 0.78000003 2.0480198e-38
0.18645716 -0.0096571427 0.78000003 2.0389082e-38
0.18770191 -0.0096447626 0.77900004 2.0571678e-38
0.18918572 -0.0096447626 0.77900004 2.0755713e-38
0.19017999 -0.0096199997 0.77700001 2.0663883e-38
0.19165999 -0.0096199997 0.77700001 2.0572753e-38
0.19314 -0.0096199997 0.77700001 2.0664577e-38
0.19462 -0.0096199997 0.77700001 2.0848608e-38
0.1961 -0.0096199997 0.77700001 2.084897e-38
0.19757999 -0.0096199997 0.77700001 2.0941888e-38
0.19905999 -0.0096199997 0.77700001 2.1033732e-38
0.2010562 -0.0096447626 0.77900004 2.1217768e-38
0.20254001 -0.0096447626 0.77900004 2.1404314e-38
0.20402381 -0.0096447626 0.77900004 2.1589066e-38
0.20550762 -0.0096447626 0.77900004 2.1775252e-38
0.20699145 -0.0096447626 0.77900004 2.196251e-38
0.20847525 -0.0096447626 0.77900004 2.2057216e-38
0.21022858 -0.0096571427 0.78000003 2.215335e-38
0.21171428 -0.0096571427 0.78000003 2.2155857e-38
0.21578667 -0.0097066667 0.78400004 2.2541549e-38
0.21728002 -0.0097066667 0.78400004 2.2842919e-38
0.21877334 -0.0097066667 0.78400004 2.2478124e-38
0.22289144 -0.0097561907 0.78800005 2.1652991e-38
0.2243924 -0.0097561907 0.78800005 2.1193124e-38
0.22618002 -0.0097685717 0.78900003 2.1935729e-38
0.16471334 -0.0083495239 0.79700005 2.0115356e-38
0.1658143 -0.008328571 0.79500002 2.0205041e-38
0.16732858 -0.008328571 0.79500002 2.0114642e-38
0.16884285 -0.008328571 0.79500002 2.0114632e-38
0.16992857 -0.008307619 0.79300004 2.0114624e-38
0.17143907 -0.008307619 0.79300004 2.0205747e-38
0.17251334 -0.0082866671 0.79100001 2.0205037e-38
0.17402001 -0.0082866671 0.79100001 2.0204321e-38
0.17552668 -0.0082866671 0.79100001 2.0204322e-38
0.1763619 -0.0082552386 0.78800005 2.0204323e-38
0.17741142 -0.0082342857 0.78600001 2.0112489e-38
0.17890857 -0.0082342857 0.78600001 2.0112489e-38
0.17994668 -0.0082133338 0.78400004 2.029616e-38
0.18144001 -0.0082133338 0.78400004 2.0479829e-38
0.18246667 -0.0081923818 0.78200006 2.0479827e-38
0.18348572 -0.008171428 0.78000003 2.0480182e-38
0.18497142 -0.008171428 0.78000003 2.0572373e-38
0.18645716 -0.008171428 0.78000003 2.0755694e-38
0.18770191 -0.0081609525 0.77900004 2.0755704e-38
0.18918572 -0.0081609525 0.77900004 2.0847543e-38
0.19066954 -0.0081609525 0.77900004 2.0756072e-38
0.19215335 -0.0081609525 0.77900004 2.0756422e-38
0.19363716 -0.0081609525 0.77900004 2.0756414e-38
0.19512096 -0.0081609525 0.77900004 2.0848612e-38
0.19660477 -0.0081609525 0.77900004 2.0848975e-38
0.19808859 -0.0081609525 0.77900004 2.0849341e-38
0.19957238 -0.0081609525 0.77900004 2.1033738e-38
0.2010562 -0.0081609525 0.77900004 2.1218488e-38
0.20280001 -0.008171428 0.78000003 2.1405749e-38
0.20428573 -0.008171428 0.78000003 2.1589423e-38
0.20550762 -0.0081609525 0.77900004 2.1774174e-38
0.20699145 -0.0081609525 0.77900004 2.1963585e-38
0.20874286 -0.008171428 0.78000003 2.2059368e-38
0.21022858 -0.008171428 0.78000003 2.2246262e-38
0.21171428 -0.008171428 0.78000003 2.2248769e-38
0.21578667 -0.0082133338 0.78400004 2.2264604e-38
0.21728002 -0.0082133338 0.78400004 2.2298355e-38
0.22317429 -0.0082657151 0.78900003 2.2493536e-38
0.22467715 -0.0082657151 0.78900003 2.3044915e-38
0.16471334 -0.006831429 0.79700005 1.9929892e-38
0.16732858 -0.0068142856 0.79500002 1.9929546e-38
0.16884285 -0.0068142856 0.79500002 1.9838063e-38
0.16992857 -0.0067971433 0.79300004 1.9930253e-38
0.17143907 -0.0067971433 0.79300004 2.0114638e-38
0.17251334 -0.0067799999 0.79100001 2.0112841e-38
0.17402001 -0.0067799999 0.79100001 2.0112842e-38
0.17552668 -0.0067799999 0.79100001 2.0204321e-38
0.17658572 -0.0067628575 0.78900003 2.0296156e-38
0.17786287 -0.0067542861 0.78800005 2.0204322e-38
0.17936382 -0.0067542861 0.78800005 2.0204322e-38
0.18040572 -0.0067371433 0.78600001 2.0387994e-38
0.18144001 -0.0067199999 0.78400004 2.0663497e-38
0.18246667 -0.0067028576 0.78200006 2.0479822e-38
0.18395621 -0.0067028576 0.78200006 2.0297216e-38
0.18497142 -0.0066857147 0.78000003 2.0480518e-38
0.18645716 -0.0066857147 0.78000003 2.0663847e-38
0.18770191 -0.0066771433 0.77900004 2.0755701e-38
0.18942858 -0.0066857147 0.78000003 2.0847898e-38
0.19066954 -0.0066771433 0.77900004 2.0756066e-38
0.19240001 -0.0066857147 0.78000003 2.0756421e-38
0.19388571 -0.0066857147 0.78000003 2.0847894e-38
0.19537143 -0.0066857147 0.78000003 2.084754e-38
0.19685715 -0.0066857147 0.78000003 2.0847546e-38
0.19834286 -0.0066857147 0.78000003 2.0939747e-38
0.19957238 -0.0066771433 0.77900004 2.1032667e-38
0.20131429 -0.0066857147 0.78000003 2.1219208e-38
0.20280001 -0.0066857147 0.78000003 2.1406467e-38
0.20428573 -0.0066857147 0.78000003 2.1681617e-38
0.20577143 -0.0066857147 0.78000003 2.1777403e-38
0.20725715 -0.0066857147 0.78000003 2.1964661e-38
0.20874286 -0.0066857147 0.78000003 2.215228e-38
0.21429335 -0.0067199999 0.78400004 2.2068709e-38
0.21578667 -0.0067199999 0.78400004 2.2272133e-38
0.21728002 -0.0067199999 0.78400004 2.2580671e-38
0.22317429 -0.0067628575 0.78900003 2.2861274e-38
0.16492002 -0.0053200005 0.79800004 1.9746574e-38
0.16644001 -0.0053200005 0.79800004 2.0022089e-38
0.16774952 -0.0053133336 0.79700005 1.9838428e-38
0.16884285 -0.0052999998 0.79500002 1.9654394e-38
0.16992857 -0.0052866666 0.79300004 1.983806e-38
0.17143907 -0.0052866666 0.79300004 2.0021007e-38
0.17251334 -0.0052733333 0.79100001 2.0020643e-38
0.17402001 -0.0052733333 0.79100001 2.0112484e-38
0.17552668 -0.0052733333 0.79100001 2.0204325e-38
0.17658572 -0.00526 0.78900003 2.0387994e-38
0.17808858 -0.00526 0.78900003 2.0387992e-38
0.17936382 -0.0052533336 0.78800005 2.0388e-38
0.18086477 -0.0052533336 0.78800005 2.0571678e-38
0.18190286 -0.0052399999 0.78600001 2.0847179e-38
0.18293335 -0.005226667 0.78400004 2.0480189e-38
0.18395621 -0.0052133338 0.78200006 2.0206111e-38
0.18497142 -0.0052 0.78000003 2.0390852e-38
0.18645716 -0.0052 0.78000003 2.057238e-38
0.18770191 -0.0051933331 0.77900004 2.0663507e-38
0.18918572 -0.0051933331 0.77900004 2.0847898e-38
0.19066954 -0.0051933331 0.77900004 2.0847902e-38
0.19240001 -0.0052 0.78000003 2.0847899e-38
0.19388571 -0.0052 0.78000003 2.0847898e-38
0.1958724 -0.0052133338 0.78200006 2.0939379e-38
0.19685715 -0.0052 0.78000003 2.0939023e-38
0.19834286 -0.0052 0.78000003 2.1031224e-38
0.19982858 -0.0052 0.78000003 2.1123427e-38
0.20131429 -0.0052 0.78000003 2.1219207e-38
0.20280001 -0.0052 0.78000003 2.1499017e-38
0.20428573 -0.0052 0.78000003 2.1775601e-38
0.20577143 -0.0052 0.78000003 2.1873538e-38
0.21280001 -0.005226667 0.78400004 2.2250205e-38
0.21429335 -0.005226667 0.78400004 2.197186e-38
0.16644001 -0.0038000003 0.79800004 2.0207909e-38
0.16774952 -0.0037952382 0.79700005 2.002174e-38
0.16884285 -0.0037857143 0.79500002 1.9838065e-38
0.16992857 -0.0037761906 0.79300004 1.9929897e-38
0.17143907 -0.0037761906 0.79300004 2.0113201e-38
0.17294954 -0.0037761906 0.79300004 2.0113193e-38
0.17402001 -0.0037666666 0.79100001 2.0205038e-38
0.17552668 -0.0037666666 0.79100001 2.038836e-38
0.17703332 -0.0037666666 0.79100001 2.048019e-38
0.17808858 -0.0037571429 0.78900003 2.0479827e-38
0.17959145 -0.0037571429 0.78900003 2.0388006e-38
0.18086477 -0.0037523813 0.78800005 2.0479857e-38
0.18190286 -0.0037428571 0.78600001 2.0663519e-38
0.18293335 -0.0037333334 0.78400004 2.0480916e-38
0.18442668 -0.0037333334 0.78400004 2.0299036e-38
0.19289334 -0.0037238097 0.78200006 2.1031573e-38
0.19438288 -0.0037238097 0.78200006 2.1031574e-38
0.1958724 -0.0037238097 0.78200006 2.1031217e-38
0.19736192 -0.0037238097 0.78200006 2.1031218e-38
0.20533334 -0.0037333334 0.78400004 2.1869945e-38
0.20682667 -0.0037333334 0.78400004 2.1964651e-38
0.21034856 -0.0037428571 0.78600001 2.1602344e-38
0.21184571 -0.0037428571 0.78600001 2.1051326e-38
0.21334286 -0.0037428571 0.78600001 2.0498874e-38
0.21688762 -0.0037523813 0.78800005 2.1551117e-38
0.21838859 -0.0037523813 0.78800005 2.3139248e-38
0.21988954 -0.0037523813 0.78800005 2.3138195e-38
0.22139049 -0.0037523813 0.78800005 2.3140348e-38
0.16350286 -0.0023028573 0.80600005 1.7449972e-38
0.16644001 -0.0022800001 0.79800004 2.0481991e-38
0.16796 -0.0022800001 0.79800004 2.02969e-38
0.16926764 -0.0022771431 0.79700005 2.0113218e-38
0.17035714 -0.0022714285 0.79500002 2.0113567e-38
0.17143907 -0.0022657143 0.79300004 2.020467e-38
0.17294954 -0.0022657143 0.79300004 2.029649e-38
0.17402001 -0.0022600002 0.79100001 2.0388339e-38
0.17552668 -0.0022600002 0.79100001 2.0480187e-38
0.17703332 -0.0022600002 0.79100001 2.0663498e-38
0.17853999 -0.0022600002 0.79100001 2.057166e-38
0.17959145 -0.0022542858 0.78900003 2.0479833e-38
0.18109429 -0.0022542858 0.78900003 2.0480201e-38
0.18236572 -0.0022514286 0.78800005 2.047984e-38
0.1899143 -0.0022342859 0.78200006 2.0847895e-38
0.19140382 -0.0022342859 0.78200006 2.1031569e-38
0.19289334 -0.0022342859 0.78200006 2.1307084e-38
0.19637334 -0.0022400003 0.78400004 2.1123418e-38
0.19786668 -0.0022400003 0.78400004 2.1123773e-38
0.19936 -0.0022400003 0.78400004 2.1216333e-38
0.20085335 -0.0022400003 0.78400004 2.1311764e-38
0.20234667 -0.0022400003 0.78400004 2.1403594e-38
0.20435999 -0.0022457142 0.78600001 2.1685912e-38
0.20585714 -0.0022457142 0.78600001 2.1962851e-38
0.20682667 -0.0022400003 0.78400004 2.2147955e-38
0.20885143 -0.0022457142 0.78600001 2.2333071e-38
0.21034856 -0.0022457142 0.78600001 2.0959853e-38
0.21184571 -0.0022457142 0.78600001 1.9576567e-38
0.21388572 -0.0022514286 0.78800005 1.8743218e-38
0.21538669 -0.0022514286 0.78800005 1.802724e-38
0.21688762 -0.0022514286 0.78800005 2.07307e-38
0.21838859 -0.0022514286 0.78800005 2.3416189e-38
0.21988954 -0.0022514286 0.78800005 2.313855e-38
0.16350286 -0.00076761912 0.80600005 1.8644196e-38
0.16644001 -0.00076000002 0.79800004 2.0205419e-38
0.16796 -0.00076000002 0.79800004 2.0113242e-38
0.16926764 -0.00075904763 0.79700005 2.0112506e-38
0.17035714 -0.00075714284 0.79500002 2.0112489e-38
0.17143907 -0.00075523811 0.79300004 2.0204302e-38
0.17294954 -0.00075523811 0.79300004 2.0296117e-38
0.17402001 -0.00075333333 0.79100001 2.0387969e-38
0.17552668 -0.00075333333 0.79100001 2.0387986e-38
0.17703332 -0.00075333333 0.79100001 2.0479822e-38
0.17853999 -0.00075333333 0.79100001 2.0387987e-38
0.18004666 -0.00075333333 0.79100001 2.0389425e-38
0.18109429 -0.0007514286 0.78900003 2.0296158e-38
0.18259715 -0.0007514286 0.78900003 2.0296162e-38
0.18386668 -0.0007504762 0.78800005 2.0296883e-38
0.18536763 -0.0007504762 0.78800005 2.039015e-38
0.18639429 -0.00074857142 0.78600001 2.038871e-38
0.18789144 -0.00074857142 0.78600001 2.0479829e-38
0.18890667 -0.00074666669 0.78400004 2.0571665e-38
0.1904 -0.00074666669 0.78400004 2.0663502e-38
0.19189334 -0.00074666669 0.78400004 2.0756058e-38
0.19537714 -0.00074857142 0.78600001 2.0664618e-38
0.19687429 -0.00074857142 0.78600001 2.0480577e-38
0.19786668 -0.00074666669 0.78400004 2.0482002e-38
0.19986857 -0.00074857142 0.78600001 2.0575281e-38
0.20136572 -0.00074857142 0.78600001 2.0577083e-38
0.20286286 -0.00074857142 0.78600001 2.0577435e-38
0.20435999 -0.00074857142 0.78600001 2.0212598e-38
0.20585714 -0.00074857142 0.78600001 1.994964e-38
0.20735428 -0.00074857142 0.78600001 1.9856005e-38
0.20885143 -0.00074857142 0.78600001 1.9762749e-38
0.21034856 -0.00074857142 0.78600001 1.9666982e-38
0.21388572 -0.0007504762 0.78800005 1.9763074e-38
0.21538669 -0.0007504762 0.78800005 2.0056582e-38
0.21716286 -0.0007514286 0.78900003 2.17452e-38
0.21866572 -0.0007514286 0.78900003 2.3417626e-38
0.22279525 -0.00075523811 0.79300004 2.2766542e-38
0.16685714 0.00076190475 0.80000001 2.0021378e-38
0.16796 0.00076000002 0.79800004 2.0021385e-38
0.16926764 0.00075904763 0.79700005 2.0112855e-38
0.17035714 0.00075714284 0.79500002 2.0112489e-38
0.17143907 0.00075523811 0.79300004 2.0204322e-38
0.17294954 0.00075523811 0.79300004 2.0296155e-38
0.17446001 0.00075523811 0.79300004 2.0387993e-38
0.17552668 0.00075333333 0.79100001 2.0296162e-38
0.17703332 0.00075333333 0.79100001 2.0296158e-38
0.17853999 0.00075333333 0.79100001 2.0296513e-38
0.18004666 0.00075333333 0.79100001 2.0296148e-38
0.18155333 0.00075333333 0.79100001 2.0204305e-38
0.18259715 0.0007514286 0.78900003 2.0204318e-38
0.1841 0.0007514286 0.78900003 2.0296166e-38
0.18560286 0.0007514286 0.78900003 2.0387999e-38
0.18710573 0.0007514286 0.78900003 2.0387996e-38
0.18789144 0.00074857142 0.78600001 2.0387997e-38
0.18938857 0.00074857142 0.78600001 2.0479834e-38
0.19088572 0.00074857142 0.78600001 2.057167e-38
0.19238286 0.00074857142 0.78600001 2.0480553e-38
0.19388001 0.00074857142 0.78600001 2.0480923e-38
0.19537714 0.00074857142 0.78600001 2.0115746e-38
0.19687429 0.00074857142 0.78600001 1.984059e-38
0.19837144 0.00074857142 0.78600001 1.9932777e-38
0.19986857 0.00074857142 0.78600001 2.0025334e-38
0.2018781 0.0007504762 0.78800005 1.9844537e-38
0.20286286 0.00074857142 0.78600001 1.9751242e-38
0.20488 0.0007504762 0.78800005 1.8831428e-38
0.20585714 0.00074857142 0.78600001 1.8004206e-38
0.20735428 0.00074857142 0.78600001 1.7544327e-38
0.20885143 0.00074857142 0.78600001 1.7180595e-38
0.21034856 0.00074857142 0.78600001 1.8378066e-38
0.21184571 0.00074857142 0.78600001 1.9580537e-38
0.21388572 0.0007504762 0.78800005 2.0875201e-38
0.21566001 0.0007514286 0.78900003 2.2176008e-38
0.21716286 0.0007514286 0.78900003 2.2760069e-38
0.22128478 0.00075523811 0.79300004 2.2953081e-38
0.22279525 0.00075523811 0.79300004 2.2582869e-38
0.16047429 0.0023257141 0.81400001 1.9562889e-38
0.16685714 0.0022857143 0.80000001 1.9929533e-38
0.16796 0.0022800001 0.79800004 1.992953e-38
0.16948001 0.0022800001 0.79800004 2.0021369e-38
0.17078573 0.0022771431 0.79700005 2.0020654e-38
0.17187142 0.0022714285 0.79500002 2.0112505e-38
0.17294954 0.0022657143 0.79300004 2.0296193e-38
0.17446001 0.0022657143 0.79300004 2.0572048e-38
0.17597048 0.0022657143 0.79300004 2.0388008e-38
0.17748097 0.0022657143 0.79300004 2.020433e-38
0.17853999 0.0022600002 0.79100001 2.0204323e-38
0.18004666 0.0022600002 0.79100001 2.0112828e-38
0.18155333 0.0022600002 0.79100001 2.0204288e-38
0.18305999 0.0022600002 0.79100001 2.0204309e-38
0.18456666 0.0022600002 0.79100001 2.0296526e-38
0.18560286 0.0022542858 0.78900003 2.0296883e-38
0.18710573 0.0022542858 0.78900003 2.0204688e-38
0.18836953 0.0022514286 0.78800005 2.0021018e-38
0.18938857 0.0022457142 0.78600001 2.0204332e-38
0.19088572 0.0022457142 0.78600001 2.0388003e-38
0.19238286 0.0022457142 0.78600001 2.0388362e-38
0.19388001 0.0022457142 0.78600001 2.048056e-38
0.1958743 0.0022514286 0.78800005 1.9839511e-38
0.19687429 0.0022457142 0.78600001 1.9289568e-38
0.19837144 0.0022457142 0.78600001 1.9015134e-38
0.20037715 0.0022514286 0.78800005 1.8740704e-38
0.2018781 0.0022514286 0.78800005 1.8830387e-38
0.20337906 0.0022514286 0.78800005 1.8920026e-38
0.20488 0.0022514286 0.78800005 1.882779e-38
0.20585714 0.0022457142 0.78600001 1.8827828e-38
0.20735428 0.0022457142 0.78600001 1.9195208e-38
0.20885143 0.0022457142 0.78600001 1.9654416e-38
0.21034856 0.0022457142 0.78600001 2.0312362e-38
0.21184571 0.0022457142 0.78600001 2.0972811e-38
0.21388572 0.0022514286 0.78800005 2.1701419e-38
0.21566001 0.0022542858 0.78900003 2.2550561e-38
0.21716286 0.0022542858 0.78900003 2.2944114e-38
0.21866572 0.0022542858 0.78900003 2.3325804e-38
0.22128478 0.0022657143 0.79300004 2.2860169e-38
0.22279525 0.0022657143 0.79300004 2.2491391e-38
0.15911905 0.0038809527 0.81500006 1.9289896e-38
0.16067144 0.0038809527 0.81500006 1.9380646e-38
0.16202477 0.0038761906 0.81400001 1.9471755e-38
0.16796 0.0038000003 0.79800004 1.9929152e-38
0.16948001 0.0038000003 0.79800004 2.0020997e-38
0.17078573 0.0037952382 0.79700005 2.0021006e-38
0.17187142 0.0037857143 0.79500002 2.0020658e-38
0.17294954 0.0037761906 0.79300004 2.0388013e-38
0.17446001 0.0037761906 0.79300004 2.0755348e-38
0.17597048 0.0037761906 0.79300004 2.0479836e-38
0.17748097 0.0037761906 0.79300004 2.0204326e-38
0.17853999 0.0037666666 0.79100001 2.0113923e-38
0.18004666 0.0037666666 0.79100001 2.0021004e-38
0.18155333 0.0037666666 0.79100001 2.0113193e-38
0.18305999 0.0037666666 0.79100001 2.0296518e-38
0.1841 0.0037571429 0.78900003 2.0296889e-38
0.18560286 0.0037571429 0.78900003 2.0297606e-38
0.18710573 0.0037571429 0.78900003 2.0023895e-38
0.18836953 0.0037523813 0.78800005 1.9747308e-38
0.18938857 0.0037428571 0.78600001 2.0021736e-38
0.19088572 0.0037428571 0.78600001 2.0296522e-38
0.19238286 0.0037428571 0.78600001 2.0387997e-38
0.19437334 0.0037523813 0.78800005 2.0480552e-38
0.1958743 0.0037523813 0.78800005 1.9655467e-38
0.19737525 0.0037523813 0.78800005 1.8827866e-38
0.1988762 0.0037523813 0.78800005 1.80921e-38
0.20063144 0.0037571429 0.78900003 1.7449984e-38
0.2021343 0.0037571429 0.78900003 1.7726224e-38
0.20337906 0.0037523813 0.78800005 1.8093182e-38
0.20488 0.0037523813 0.78800005 1.8919677e-38
0.20638096 0.0037523813 0.78800005 1.9757341e-38
0.20788191 0.0037523813 0.78800005 2.0962706e-38
0.20885143 0.0037428571 0.78600001 2.2155864e-38
0.21088381 0.0037523813 0.78800005 2.2246996e-38
0.21238478 0.0037523813 0.78800005 2.2341369e-38
0.21388572 0.0037523813 0.78800005 2.2619415e-38
0.21566001 0.0037571429 0.78900003 2.3015838e-38
0.21771333 0.0037666666 0.79100001 2.3128504e-38
0.15756667 0.0054333336 0.81500006 1.9200936e-38
0.15911905 0.0054333336 0.81500006 1.9292046e-38
0.16067144 0.0054333336 0.81500006 1.9291675e-38
0.16202477 0.0054266667 0.81400001 1.9290228e-38
0.16317333 0.0054133334 0.81200004 1.9380642e-38
0.16796 0.0053200005 0.79800004 1.9929134e-38
0.16948001 0.0053200005 0.79800004 2.0113179e-38
0.17078573 0.0053133336 0.79700005 2.0021e-38
0.17187142 0.0052999998 0.79500002 1.9929171e-38
0.17338572 0.0052999998 0.79500002 2.0112491e-38
0.17446001 0.0052866666 0.79300004 2.0387994e-38
0.17597048 0.0052866666 0.79300004 2.0296156e-38
0.17748097 0.0052866666 0.79300004 2.0112845e-38
0.17899144 0.0052866666 0.79300004 2.0112847e-38
0.18004666 0.0052733333 0.79100001 2.011321e-38
0.18155333 0.0052733333 0.79100001 2.0205051e-38
0.18305999 0.0052733333 0.79100001 2.0388007e-38
0.18456666 0.0052733333 0.79100001 2.0296534e-38
0.18560286 0.00526 0.78900003 2.0298331e-38
0.18710573 0.00526 0.78900003 2.0115023e-38
0.18836953 0.0052533336 0.78800005 1.9931701e-38
0.18987049 0.0052533336 0.78800005 2.0113211e-38
0.19137144 0.0052533336 0.78800005 2.0388713e-38
0.19287239 0.0052533336 0.78800005 2.0480546e-38
0.19437334 0.0052533336 0.78800005 2.0572377e-38
0.1958743 0.0052533336 0.78800005 2.0296509e-38
0.19737525 0.0052533336 0.78800005 1.9928802e-38
0.1988762 0.0052533336 0.78800005 1.9745124e-38
0.20063144 0.00526 0.78900003 1.9469648e-38
0.2021343 0.00526 0.78900003 1.9750925e-38
0.20363715 0.00526 0.78900003 1.9940689e-38
0.20488 0.0052533336 0.78800005 2.0497795e-38
0.20638096 0.0052533336 0.78800005 2.1055273e-38
0.20788191 0.0052533336 0.78800005 2.1695979e-38
0.20938288 0.0052533336 0.78800005 2.2336672e-38
0.21088381 0.0052533336 0.78800005 2.2246628e-38
0.21238478 0.0052533336 0.78800005 2.2248454e-38
0.21415715 0.00526 0.78900003 2.2717349e-38
0.21771333 0.0052733333 0.79100001 2.3223211e-38
0.21922 0.0052733333 0.79100001 2.3325089e-38
0.15756667 0.0069857147 0.81500006 1.9200938e-38
0.15911905 0.0069857147 0.81500006 1.920165e-38
0.16067144 0.0069857147 0.81500006 1.9291694e-38
0.16202477 0.0069771428 0.81400001 1.9199861e-38
0.16317333 0.0069600004 0.81200004 1.919699e-38
0.1643143 0.0069428575 0.81000006 1.9474288e-38
0.16838096 0.0068571432 0.80000001 2.002134e-38
0.16948001 0.0068399999 0.79800004 2.0296855e-38
0.171 0.0068399999 0.79800004 2.0021716e-38
0.17187142 0.0068142856 0.79500002 1.9837329e-38
0.17338572 0.0068142856 0.79500002 1.9931318e-38
0.17446001 0.0067971433 0.79300004 2.0112481e-38
0.17597048 0.0067971433 0.79300004 2.0113201e-38
0.17748097 0.0067971433 0.79300004 2.0112844e-38
0.17899144 0.0067971433 0.79300004 2.0112845e-38
0.18004666 0.0067799999 0.79100001 2.0205048e-38
0.18155333 0.0067799999 0.79100001 2.0296892e-38
0.18305999 0.0067799999 0.79100001 2.0479841e-38
0.18456666 0.0067799999 0.79100001 2.0388003e-38
0.18560286 0.0067628575 0.78900003 2.0296886e-38
0.18710573 0.0067628575 0.78900003 2.0205771e-38
0.18836953 0.0067542861 0.78800005 2.0206121e-38
0.18987049 0.0067542861 0.78800005 2.0296872e-38
0.19137144 0.0067542861 0.78800005 2.0480547e-38
0.19287239 0.0067542861 0.78800005 2.0572386e-38
0.19437334 0.0067542861 0.78800005 2.0756055e-38
0.1958743 0.0067542861 0.78800005 2.0939725e-38
0.19762571 0.0067628575 0.78900003 2.1124825e-38
0.19912858 0.0067628575 0.78900003 2.1313513e-38
0.20063144 0.0067628575 0.78900003 2.1584375e-38
0.2021343 0.0067628575 0.78900003 2.1689862e-38
0.20363715 0.0067628575 0.78900003 2.1870656e-38
0.20513999 0.0067628575 0.78900003 2.2060778e-38
0.20664287 0.0067628575 0.78900003 2.2334509e-38
0.20814572 0.0067628575 0.78900003 2.242457e-38
0.20964858 0.0067628575 0.78900003 2.2516403e-38
0.21115144 0.0067628575 0.78900003 2.2332729e-38
0.21265429 0.0067628575 0.78900003 2.2251314e-38
0.22032857 0.0068142856 0.79500002 2.3417286e-38
0.22184286 0.0068142856 0.79500002 2.3230383e-38
0.15911905 0.0085380953 0.81500006 1.9107666e-38
0.16067144 0.0085380953 0.81500006 1.9198085e-38
0.16202477 0.0085276198 0.81400001 1.928958e-38
0.16317333 0.0085066669 0.81200004 1.9289203e-38
0.1643143 0.0084857149 0.81000006 1.9472498e-38
0.16544762 0.008464762 0.80800003 1.9656178e-38
0.16838096 0.0083809523 0.80000001 1.9837682e-38
0.16990477 0.0083809523 0.80000001 2.0020996e-38
0.171 0.0083600003 0.79800004 1.9929163e-38
0.17187142 0.008328571 0.79500002 1.9837682e-38
0.17338572 0.008328571 0.79500002 1.9837319e-38
0.1749 0.008328571 0.79500002 1.9929162e-38
0.17597048 0.008307619 0.79300004 2.0021006e-38
0.17748097 0.008307619 0.79300004 2.0112484e-38
0.17899144 0.008307619 0.79300004 2.0112487e-38
0.18050191 0.008307619 0.79300004 2.0113215e-38
0.18155333 0.0082866671 0.79100001 2.0204703e-38
0.18305999 0.0082866671 0.79100001 2.0388004e-38
0.18456666 0.0082866671 0.79100001 2.0296159e-38
0.18607333 0.0082866671 0.79100001 2.0204682e-38
0.18710573 0.0082657151 0.78900003 2.0206477e-38
0.18860857 0.0082657151 0.78900003 2.0298306e-38
0.18987049 0.0082552386 0.78800005 2.0389417e-38
0.19137144 0.0082552386 0.78800005 2.057238e-38
0.19287239 0.0082552386 0.78800005 2.0755704e-38
0.19437334 0.0082552386 0.78800005 2.1030851e-38
0.1958743 0.0082552386 0.78800005 2.1031211e-38
0.19762571 0.0082657151 0.78900003 2.1035153e-38
0.19912858 0.0082657151 0.78900003 2.1219179e-38
0.2021343 0.0082657151 0.78900003 2.1593352e-38
0.20415334 0.0082866671 0.79100001 2.1688767e-38
0.20566 0.0082866671 0.79100001 2.1871353e-38
0.20664287 0.0082657151 0.78900003 2.2053977e-38
0.21881428 0.008328571 0.79500002 2.3223939e-38
0.22032857 0.008328571 0.79500002 2.3233976e-38
0.22184286 0.008328571 0.79500002 2.313747e-38
0.16544762 0.01000381 0.80800003 1.9563622e-38
0.16838096 0.0099047627 0.80000001 1.9562174e-38
0.16990477 0.0099047627 0.80000001 1.9745491e-38
0.171 0.0098800007 0.79800004 1.9745496e-38
